ply
    format ascii 1.0
    element vertex 33728
    property float x
    property float y
    property float z
    property uchar red
    property uchar green
    property uchar blue
    end_header
127.6004867553711 4.011021614074707 239.80194091796875 34 189 188
131.63136291503906 4.011021614074707 239.80194091796875 207 190 23
47.566383361816406 4.064059257507324 239.80194091796875 14 127 255
52.23371505737305 4.064059257507324 239.80194091796875 180 119 31
56.68889236450195 4.064059257507324 239.80194091796875 44 160 44
61.19710922241211 4.064059257507324 239.80194091796875 40 39 214
65.59925079345703 4.064059257507324 239.80194091796875 189 103 148
58.22916030883789 3.3780412673950195 199.32310485839844 14 127 255
74.4565658569336 4.064059257507324 239.80194091796875 180 119 31
78.85870361328125 4.064059257507324 239.80194091796875 127 127 127
83.31388854980469 4.064059257507324 239.80194091796875 34 189 188
84.98233795166016 3.9350228309631348 232.18807983398438 207 190 23
83.955810546875 3.697566509246826 218.17684936523438 180 119 31
96.52030944824219 4.064059257507324 239.80194091796875 14 127 255
101.08155822753906 4.064059257507324 239.80194091796875 44 160 44
105.53673553466797 4.064059257507324 239.80194091796875 40 39 214
107.49832916259766 3.971924066543579 234.36546325683594 189 103 148
114.50013732910156 4.064059257507324 239.80194091796875 75 86 140
118.90228271484375 4.064059257507324 239.80194091796875 194 119 227
123.3044204711914 4.064059257507324 239.80194091796875 127 127 127
127.6004867553711 4.064059257507324 239.80194091796875 34 189 188
131.63136291503906 4.064059257507324 239.80194091796875 207 190 23
47.566383361816406 4.117096900939941 239.80194091796875 14 127 255
49.57807159423828 3.9077775478363037 227.61004638671875 180 119 31
56.68889236450195 4.117096900939941 239.80194091796875 44 160 44
61.19710922241211 4.117096900939941 239.80194091796875 40 39 214
65.59925079345703 4.117096900939941 239.80194091796875 189 103 148
58.22916030883789 3.422126293182373 199.32310485839844 14 127 255
68.60971069335938 3.7937934398651123 220.9709930419922 180 119 31
78.85870361328125 4.117096900939941 239.80194091796875 127 127 127
83.31388854980469 4.117096900939941 239.80194091796875 34 189 188
84.978271484375 3.9861857891082764 232.17697143554688 207 190 23
83.95958709716797 3.745990037918091 218.18667602539062 180 119 31
96.52030944824219 4.117096900939941 239.80194091796875 14 127 255
101.08155822753906 4.117096900939941 239.80194091796875 44 160 44
105.53673553466797 4.117096900939941 239.80194091796875 40 39 214
107.49832916259766 4.023759365081787 234.36546325683594 189 103 148
114.44709777832031 4.117096900939941 239.80194091796875 75 86 140
114.50013732910156 4.117096900939941 239.80194091796875 75 86 140
118.90228271484375 4.117096900939941 239.80194091796875 194 119 227
123.3044204711914 4.117096900939941 239.80194091796875 127 127 127
127.6004867553711 4.117096900939941 239.80194091796875 34 189 188
131.63136291503906 4.117096900939941 239.80194091796875 207 190 23
47.51334762573242 4.170135021209717 239.80194091796875 14 127 255
49.52772903442383 3.9581189155578613 227.61004638671875 180 119 31
49.57807159423828 3.9581189155578613 227.61004638671875 180 119 31
56.68889236450195 4.170135021209717 239.80194091796875 44 160 44
61.14406967163086 4.170135021209717 239.80194091796875 40 39 214
65.59925079345703 4.170135021209717 239.80194091796875 189 103 148
58.24592208862305 3.4672091007232666 199.38047790527344 14 127 255
68.3946304321289 3.830620288848877 220.27828979492188 180 119 31
78.85870361328125 4.170135021209717 239.80194091796875 127 127 127
83.26084899902344 4.170135021209717 239.80194091796875 34 189 188
84.9010238647461 4.033866882324219 231.96591186523438 207 190 23
83.97848510742188 3.7951011657714844 218.23577880859375 180 119 31
96.5733413696289 4.170135021209717 239.80194091796875 14 127 255
101.08155822753906 4.170135021209717 239.80194091796875 44 160 44
105.53673553466797 4.170135021209717 239.80194091796875 40 39 214
107.49313354492188 4.075397968292236 234.35414123535156 189 103 148
114.44709777832031 4.170135021209717 239.80194091796875 75 86 140
118.90228271484375 4.170135021209717 239.80194091796875 194 119 227
123.3044204711914 4.170135021209717 239.80194091796875 127 127 127
127.6004867553711 4.170135021209717 239.80194091796875 34 189 188
117.6070327758789 3.7258386611938477 214.2528533935547 207 190 23
47.51334762573242 4.223172664642334 239.80194091796875 14 127 255
49.52772903442383 4.00846004486084 227.61004638671875 180 119 31
56.68889236450195 4.223172664642334 239.80194091796875 44 160 44
61.14406967163086 4.223172664642334 239.80194091796875 40 39 214
65.59925079345703 4.223172664642334 239.80194091796875 189 103 148
58.248313903808594 3.511451244354248 199.388671875 14 127 255
68.56083679199219 3.8915393352508545 220.9709930419922 180 119 31
78.85870361328125 4.223172664642334 239.80194091796875 127 127 127
83.26084899902344 4.223172664642334 239.80194091796875 34 189 188
84.89696502685547 4.0849761962890625 231.95481872558594 207 190 23
83.98604583740234 3.843715190887451 218.25543212890625 180 119 31
96.5733413696289 4.223172664642334 239.80194091796875 14 127 255
101.08155822753906 4.223172664642334 239.80194091796875 44 160 44
105.53673553466797 4.223172664642334 239.80194091796875 40 39 214
107.4879379272461 4.127031326293945 234.34280395507812 189 103 148
114.44709777832031 4.223172664642334 239.80194091796875 75 86 140
118.90228271484375 4.223172664642334 239.80194091796875 194 119 227
114.79360961914062 3.93167781829834 223.25015258789062 127 127 127
127.6004867553711 4.223172664642334 239.80194091796875 34 189 188
117.6070327758789 3.7732255458831787 214.2528533935547 207 190 23
47.51334762573242 4.276210784912109 239.80194091796875 14 127 255
49.53005599975586 4.0589919090271 227.6207275390625 180 119 31
56.68889236450195 4.276210784912109 239.80194091796875 44 160 44
61.14406967163086 4.276210784912109 239.80194091796875 40 39 214
65.54621124267578 4.276210784912109 239.80194091796875 189 103 148
58.2363395690918 3.5548198223114014 199.34768676757812 14 127 255
68.56083679199219 3.9404122829437256 220.9709930419922 180 119 31
78.85870361328125 4.276210784912109 239.80194091796875 127 127 127
83.26084899902344 4.276210784912109 239.80194091796875 34 189 188
84.9010238647461 4.136476516723633 231.96591186523438 207 190 23
83.98604583740234 3.8919875621795654 218.25543212890625 180 119 31
96.5733413696289 4.276210784912109 239.80194091796875 14 127 255
101.08155822753906 4.276210784912109 239.80194091796875 44 160 44
105.53673553466797 4.276210784912109 239.80194091796875 40 39 214
107.4879379272461 4.178861618041992 234.34280395507812 189 103 148
114.44709777832031 4.276210784912109 239.80194091796875 75 86 140
118.90228271484375 4.276210784912109 239.80194091796875 194 119 227
114.79360961914062 3.9810547828674316 223.25015258789062 127 127 127
127.6004867553711 4.276210784912109 239.80194091796875 34 189 188
117.6070327758789 3.820612668991089 214.2528533935547 207 190 23
47.51334762573242 4.329248428344727 239.80194091796875 14 127 255
49.53703308105469 4.109914302825928 227.6527862548828 180 119 31
56.6358528137207 4.329248428344727 239.80194091796875 44 160 44
61.14406967163086 4.329248428344727 239.80194091796875 40 39 214
65.54621124267578 4.329248428344727 239.80194091796875 189 103 148
58.20900344848633 3.5999462604522705 199.4050750732422 14 127 255
68.57958984375 3.9903764724731445 221.0314483642578 180 119 31
78.85870361328125 4.329248428344727 239.80194091796875 127 127 127
83.26084899902344 4.329248428344727 239.80194091796875 34 189 188
84.95386505126953 4.19038724899292 232.1102752685547 207 190 23
83.95667266845703 3.9411468505859375 218.3045654296875 180 119 31
78.531494140625 3.5204572677612305 195.00209045410156 14 127 255
101.08155822753906 4.329248428344727 239.80194091796875 44 160 44
105.53673553466797 4.329248428344727 239.80194091796875 40 39 214
107.4879379272461 4.230692386627197 234.34280395507812 189 103 148
114.44709777832031 4.329248428344727 239.80194091796875 75 86 140
118.90228271484375 4.329248428344727 239.80194091796875 194 119 227
123.25138092041016 4.329248428344727 239.80194091796875 127 127 127
127.54744720458984 4.329248428344727 239.80194091796875 34 189 188
117.6070327758789 3.867999792098999 214.2528533935547 207 190 23
47.51334762573242 4.382286071777344 239.80194091796875 14 127 255
49.57893371582031 4.163784503936768 227.84536743164062 180 119 31
56.6358528137207 4.382286071777344 239.80194091796875 44 160 44
61.091033935546875 4.382286071777344 239.80194091796875 40 39 214
65.54621124267578 4.382286071777344 239.80194091796875 189 103 148
58.21139907836914 3.6441993713378906 199.4132843017578 14 127 255
68.59210205078125 4.039999485015869 221.07176208496094 180 119 31
78.80567169189453 4.382286071777344 239.80194091796875 127 127 127
83.26084899902344 4.382286071777344 239.80194091796875 34 189 188
84.95793151855469 4.241927146911621 232.1213836669922 207 190 23
83.96800994873047 3.98996901512146 218.33404541015625 180 119 31
78.52517700195312 3.563300132751465 194.9864044189453 14 127 255
101.08155822753906 4.382286071777344 239.80194091796875 44 160 44
105.53673553466797 4.382286071777344 239.80194091796875 40 39 214
107.4879379272461 4.282522678375244 234.34280395507812 189 103 148
114.44709777832031 4.382286071777344 239.80194091796875 75 86 140
118.90228271484375 4.382286071777344 239.80194091796875 194 119 227
123.25138092041016 4.382286071777344 239.80194091796875 127 127 127
127.54744720458984 4.382286071777344 239.80194091796875 34 189 188
117.61742401123047 3.9157328605651855 214.27178955078125 207 190 23
47.51334762573242 4.435324192047119 239.80194091796875 14 127 255
52.1806755065918 4.435324192047119 239.80194091796875 180 119 31
56.6358528137207 4.435324192047119 239.80194091796875 44 160 44
61.091033935546875 4.435324192047119 239.80194091796875 40 39 214
65.54621124267578 4.435324192047119 239.80194091796875 189 103 148
58.21139907836914 3.6883041858673096 199.4132843017578 14 127 255
68.59210205078125 4.088894844055176 221.07176208496094 180 119 31
78.80567169189453 4.435324192047119 239.80194091796875 127 127 127
83.26084899902344 4.435324192047119 239.80194091796875 34 189 188
84.95793151855469 4.293266296386719 232.1213836669922 207 190 23
83.99449157714844 4.03953218460083 218.40289306640625 180 119 31
78.52517700195312 3.6064257621765137 194.9864044189453 14 127 255
101.08155822753906 4.435324192047119 239.80194091796875 44 160 44
90.50186920166016 3.8053760528564453 205.742919921875 40 39 214
107.4879379272461 4.334352970123291 234.34280395507812 189 103 148
114.44709777832031 4.435324192047119 239.80194091796875 75 86 140
118.90228271484375 4.435324192047119 239.80194091796875 194 119 227
123.25138092041016 4.435324192047119 239.80194091796875 127 127 127
127.54744720458984 4.435324192047119 239.80194091796875 34 189 188
131.5783233642578 4.435324192047119 239.80194091796875 207 190 23
47.51334762573242 4.488361835479736 239.80194091796875 14 127 255
49.592918395996094 4.265773773193359 227.9096221923828 180 119 31
56.6358528137207 4.488361835479736 239.80194091796875 44 160 44
61.091033935546875 4.488361835479736 239.80194091796875 40 39 214
65.54621124267578 4.488361835479736 239.80194091796875 189 103 148
58.21139907836914 3.7324092388153076 199.4132843017578 14 127 255
68.59210205078125 4.137789726257324 221.07176208496094 180 119 31
78.80567169189453 4.488361835479736 239.80194091796875 127 127 127
83.26084899902344 4.488361835479736 239.80194091796875 34 189 188
84.95386505126953 4.344397068023682 232.1102752685547 207 190 23
83.99827575683594 4.088021278381348 218.41273498535156 180 119 31
78.53781127929688 3.6501388549804688 195.0177764892578 14 127 255
101.08155822753906 4.488361835479736 239.80194091796875 44 160 44
90.50186920166016 3.8508808612823486 205.742919921875 40 39 214
107.52445220947266 4.3897905349731445 234.5355224609375 189 103 148
114.44709777832031 4.488361835479736 239.80194091796875 75 86 140
118.8492431640625 4.488361835479736 239.80194091796875 194 119 227
123.25138092041016 4.488361835479736 239.80194091796875 127 127 127
127.54744720458984 4.488361835479736 239.80194091796875 34 189 188
131.5783233642578 4.488361835479736 239.80194091796875 207 190 23
47.51334762573242 4.541399955749512 239.80194091796875 14 127 255
49.592918395996094 4.316181659698486 227.9096221923828 180 119 31
56.6358528137207 4.541399955749512 239.80194091796875 44 160 44
61.091033935546875 4.541399955749512 239.80194091796875 40 39 214
65.54621124267578 4.541399955749512 239.80194091796875 189 103 148
58.20900344848633 3.7763588428497314 199.4050750732422 14 127 255
68.38319396972656 4.173933982849121 220.3984375 180 119 31
78.80567169189453 4.541399955749512 239.80194091796875 127 127 127
83.26084899902344 4.541399955749512 239.80194091796875 34 189 188
84.94979858398438 4.395523548126221 232.0991668701172 207 190 23
83.95752716064453 4.1367011070251465 218.4324188232422 180 119 31
96.5733413696289 4.541399955749512 239.80194091796875 14 127 255
101.02851867675781 4.541399955749512 239.80194091796875 44 160 44
105.48370361328125 4.541399955749512 239.80194091796875 40 39 214
109.93888854980469 4.541399955749512 239.80194091796875 189 103 148
114.44709777832031 4.541399955749512 239.80194091796875 75 86 140
118.8492431640625 4.541399955749512 239.80194091796875 194 119 227
123.25138092041016 4.541399955749512 239.80194091796875 127 127 127
127.54744720458984 4.541399955749512 239.80194091796875 34 189 188
131.5783233642578 4.541399955749512 239.80194091796875 207 190 23
47.51334762573242 4.594437599182129 239.80194091796875 14 127 255
49.592918395996094 4.366589069366455 227.9096221923828 180 119 31
56.6358528137207 4.594437599182129 239.80194091796875 44 160 44
61.091033935546875 4.594437599182129 239.80194091796875 40 39 214
65.54621124267578 4.594437599182129 239.80194091796875 189 103 148
58.20900344848633 3.8204617500305176 199.4050750732422 14 127 255
68.38319396972656 4.22268009185791 220.3984375 180 119 31
78.80567169189453 4.594437599182129 239.80194091796875 127 127 127
83.26084899902344 4.594437599182129 239.80194091796875 34 189 188
84.92134094238281 4.44536828994751 232.0214080810547 207 190 23
83.95752716064453 4.185012340545654 218.4324188232422 180 119 31
96.5733413696289 4.594437599182129 239.80194091796875 14 127 255
101.02851867675781 4.594437599182129 239.80194091796875 44 160 44
105.48370361328125 4.594437599182129 239.80194091796875 40 39 214
109.93888854980469 4.594437599182129 239.80194091796875 189 103 148
114.3940658569336 4.594437599182129 239.80194091796875 75 86 140
118.8492431640625 4.594437599182129 239.80194091796875 194 119 227
123.25138092041016 4.594437599182129 239.80194091796875 127 127 127
127.54744720458984 4.594437599182129 239.80194091796875 34 189 188
117.5908203125 4.106023788452148 214.30967712402344 207 190 23
47.51334762573242 4.647475242614746 239.80194091796875 14 127 255
49.59524917602539 4.4172043800354 227.9203338623047 180 119 31
56.6358528137207 4.647475242614746 239.80194091796875 44 160 44
61.091033935546875 4.647475242614746 239.80194091796875 40 39 214
65.49317169189453 4.647475242614746 239.80194091796875 189 103 148
58.20421600341797 3.8642470836639404 199.388671875 14 127 255
68.38008117675781 4.2712321281433105 220.388427734375 180 119 31
78.80567169189453 4.647475242614746 239.80194091796875 127 127 127
83.26084899902344 4.647475242614746 239.80194091796875 34 189 188
84.91727447509766 4.496469974517822 232.01031494140625 207 190 23
83.98023223876953 4.234468460083008 218.49148559570312 180 119 31
96.5733413696289 4.647475242614746 239.80194091796875 14 127 255
101.02851867675781 4.647475242614746 239.80194091796875 44 160 44
105.48370361328125 4.647475242614746 239.80194091796875 40 39 214
109.93888854980469 4.647475242614746 239.80194091796875 189 103 148
114.3940658569336 4.647475242614746 239.80194091796875 75 86 140
118.8492431640625 4.647475242614746 239.80194091796875 194 119 227
123.25138092041016 4.647475242614746 239.80194091796875 127 127 127
127.54744720458984 4.647475242614746 239.80194091796875 34 189 188
117.59602355957031 4.15360689163208 214.31915283203125 207 190 23
47.51334762573242 4.7005133628845215 239.80194091796875 14 127 255
49.54484176635742 4.46761417388916 227.9203338623047 180 119 31
56.6358528137207 4.7005133628845215 239.80194091796875 44 160 44
61.091033935546875 4.7005133628845215 239.80194091796875 40 39 214
65.49317169189453 4.7005133628845215 239.80194091796875 189 103 148
58.20421600341797 3.908346652984619 199.388671875 14 127 255
68.38008117675781 4.319976329803467 220.388427734375 180 119 31
78.80567169189453 4.7005133628845215 239.80194091796875 127 127 127
83.26084899902344 4.7005133628845215 239.80194091796875 34 189 188
84.91727447509766 4.547784328460693 232.01031494140625 207 190 23
84.05599212646484 4.286656379699707 218.68858337402344 180 119 31
78.51046752929688 3.823438882827759 195.0570068359375 14 127 255
96.5733413696289 4.7005133628845215 239.80194091796875 14 127 255
101.02851867675781 4.7005133628845215 239.80194091796875 44 160 44
105.48370361328125 4.7005133628845215 239.80194091796875 40 39 214
109.93888854980469 4.7005133628845215 239.80194091796875 189 103 148
114.3940658569336 4.7005133628845215 239.80194091796875 75 86 140
118.8492431640625 4.7005133628845215 239.80194091796875 194 119 227
123.1983413696289 4.7005133628845215 239.80194091796875 127 127 127
127.54744720458984 4.7005133628845215 239.80194091796875 34 189 188
117.62201690673828 4.201937198638916 214.3665313720703 207 190 23
47.51334762573242 4.753551006317139 239.80194091796875 14 127 255
49.54716873168945 4.5182366371154785 227.93104553222656 180 119 31
56.6358528137207 4.753551006317139 239.80194091796875 44 160 44
61.037994384765625 4.753551006317139 239.80194091796875 40 39 214
65.49317169189453 4.753551006317139 239.80194091796875 189 103 148
58.184043884277344 3.9540722370147705 199.470703125 14 127 255
68.54633331298828 4.382465839385986 221.0818328857422 180 119 31
78.80567169189453 4.753551006317139 239.80194091796875 127 127 127
83.26084899902344 4.753551006317139 239.80194091796875 34 189 188
84.92134094238281 4.599318981170654 232.0214080810547 207 190 23
84.03324890136719 4.3338518142700195 218.62940979003906 180 119 31
78.51046752929688 3.8665802478790283 195.0570068359375 14 127 255
101.02851867675781 4.753551006317139 239.80194091796875 44 160 44
105.48370361328125 4.753551006317139 239.80194091796875 40 39 214
109.93888854980469 4.753551006317139 239.80194091796875 189 103 148
114.3940658569336 4.753551006317139 239.80194091796875 75 86 140
118.8492431640625 4.753551006317139 239.80194091796875 194 119 227
123.1983413696289 4.753551006317139 239.80194091796875 127 127 127
127.54744720458984 4.753551006317139 239.80194091796875 34 189 188
131.5783233642578 4.753551006317139 239.80194091796875 207 190 23
47.51334762573242 4.806589126586914 239.80194091796875 14 127 255
49.55182647705078 4.56907844543457 227.95248413085938 180 119 31
56.58281707763672 4.806589126586914 239.80194091796875 44 160 44
61.037994384765625 4.806589126586914 239.80194091796875 40 39 214
65.49317169189453 4.806589126586914 239.80194091796875 189 103 148
58.1888313293457 3.998518943786621 199.48712158203125 14 127 255
68.55258178710938 4.431767463684082 221.1020050048828 180 119 31
78.80567169189453 4.806589126586914 239.80194091796875 127 127 127
83.20780944824219 4.806589126586914 239.80194091796875 34 189 188
84.93353271484375 4.651303768157959 232.0547332763672 207 190 23
83.75753784179688 4.367828845977783 217.91209411621094 180 119 31
96.52030944824219 4.806589126586914 239.80194091796875 14 127 255
101.02851867675781 4.806589126586914 239.80194091796875 44 160 44
105.48370361328125 4.806589126586914 239.80194091796875 40 39 214
109.93888854980469 4.806589126586914 239.80194091796875 189 103 148
114.3940658569336 4.806589126586914 239.80194091796875 75 86 140
118.8492431640625 4.806589126586914 239.80194091796875 194 119 227
123.1983413696289 4.806589126586914 239.80194091796875 127 127 127
127.54744720458984 4.806589126586914 239.80194091796875 34 189 188
131.52528381347656 4.806589126586914 239.80194091796875 207 190 23
47.51334762573242 4.859626770019531 239.80194091796875 14 127 255
49.55182647705078 4.619495391845703 227.95248413085938 180 119 31
56.58281707763672 4.859626770019531 239.80194091796875 44 160 44
61.037994384765625 4.859626770019531 239.80194091796875 40 39 214
65.49317169189453 4.859626770019531 239.80194091796875 189 103 148
58.196014404296875 4.0431389808654785 199.51174926757812 14 127 255
68.55258178710938 4.4806694984436035 221.1020050048828 180 119 31
78.80567169189453 4.859626770019531 239.80194091796875 127 127 127
83.20780944824219 4.859626770019531 239.80194091796875 34 189 188
84.94573211669922 4.703303337097168 232.0880584716797 207 190 23
83.76882934570312 4.41662073135376 217.9414825439453 180 119 31
96.52030944824219 4.859626770019531 239.80194091796875 14 127 255
101.02851867675781 4.859626770019531 239.80194091796875 44 160 44
105.48370361328125 4.859626770019531 239.80194091796875 40 39 214
109.93888854980469 4.859626770019531 239.80194091796875 189 103 148
114.3940658569336 4.859626770019531 239.80194091796875 75 86 140
118.8492431640625 4.859626770019531 239.80194091796875 194 119 227
123.1983413696289 4.859626770019531 239.80194091796875 127 127 127
127.54744720458984 4.859626770019531 239.80194091796875 34 189 188
131.52528381347656 4.859626770019531 239.80194091796875 207 190 23
47.51334762573242 4.912664413452148 239.80194091796875 14 127 255
49.57746887207031 4.672328948974609 228.0704345703125 180 119 31
56.58281707763672 4.912664413452148 239.80194091796875 44 160 44
60.98495864868164 4.912664413452148 239.80194091796875 40 39 214
65.49317169189453 4.912664413452148 239.80194091796875 189 103 148
58.196014404296875 4.087265968322754 199.51174926757812 14 127 255
68.55258178710938 4.529571056365967 221.1020050048828 180 119 31
78.80567169189453 4.912664413452148 239.80194091796875 127 127 127
83.20780944824219 4.912664413452148 239.80194091796875 34 189 188
84.94573211669922 4.754635334014893 232.0880584716797 207 190 23
84.04932403564453 4.4823527336120605 218.79713439941406 180 119 31
96.52030944824219 4.912664413452148 239.80194091796875 14 127 255
100.9754867553711 4.912664413452148 239.80194091796875 44 160 44
105.48370361328125 4.912664413452148 239.80194091796875 40 39 214
107.44129943847656 4.801058769226074 234.35414123535156 189 103 148
114.3940658569336 4.912664413452148 239.80194091796875 75 86 140
118.8492431640625 4.912664413452148 239.80194091796875 194 119 227
123.1983413696289 4.912664413452148 239.80194091796875 127 127 127
127.4944076538086 4.912664413452148 239.80194091796875 34 189 188
131.52528381347656 4.912664413452148 239.80194091796875 207 190 23
47.51334762573242 4.965702533721924 239.80194091796875 14 127 255
49.57746887207031 4.722772121429443 228.0704345703125 180 119 31
56.58281707763672 4.965702533721924 239.80194091796875 44 160 44
60.98495864868164 4.965702533721924 239.80194091796875 40 39 214
65.49317169189453 4.965702533721924 239.80194091796875 189 103 148
58.196014404296875 4.131392478942871 199.51174926757812 14 127 255
68.55258178710938 4.578473091125488 221.1020050048828 180 119 31
78.75263214111328 4.965702533721924 239.80194091796875 127 127 127
83.20780944824219 4.965702533721924 239.80194091796875 34 189 188
84.9375991821289 4.805506706237793 232.0658416748047 207 190 23
84.06449890136719 4.5315632820129395 218.83663940429688 180 119 31
78.50730895996094 4.0389838218688965 195.04916381835938 14 127 255
100.9754867553711 4.965702533721924 239.80194091796875 44 160 44
105.48370361328125 4.965702533721924 239.80194091796875 40 39 214
107.4516830444336 4.853361129760742 234.3767852783203 189 103 148
114.3940658569336 4.965702533721924 239.80194091796875 75 86 140
118.8492431640625 4.965702533721924 239.80194091796875 194 119 227
123.1983413696289 4.965702533721924 239.80194091796875 127 127 127
127.4944076538086 4.965702533721924 239.80194091796875 34 189 188
131.52528381347656 4.965702533721924 239.80194091796875 207 190 23
47.51334762573242 5.018740177154541 239.80194091796875 14 127 255
49.58679962158203 4.774113655090332 228.1133575439453 180 119 31
56.58281707763672 5.018740177154541 239.80194091796875 44 160 44
60.98495864868164 5.018740177154541 239.80194091796875 40 39 214
65.49317169189453 5.018740177154541 239.80194091796875 189 103 148
58.19362258911133 4.175347328186035 199.5035400390625 14 127 255
68.55258178710938 4.62737512588501 221.1020050048828 180 119 31
78.75263214111328 5.018740177154541 239.80194091796875 127 127 127
83.20780944824219 5.018740177154541 239.80194091796875 34 189 188
84.9294662475586 4.856368541717529 232.0436248779297 207 190 23
84.06449890136719 4.5799641609191895 218.83663940429688 180 119 31
78.50099182128906 4.081794738769531 195.03347778320312 14 127 255
100.9754867553711 5.018740177154541 239.80194091796875 44 160 44
90.46404266357422 4.306294918060303 205.76039123535156 40 39 214
107.46726989746094 4.905910491943359 234.41078186035156 189 103 148
114.3940658569336 5.018740177154541 239.80194091796875 75 86 140
118.79620361328125 5.018740177154541 239.80194091796875 194 119 227
114.91709899902344 4.681386470794678 223.6827392578125 127 127 127
127.4944076538086 5.018740177154541 239.80194091796875 34 189 188
131.52528381347656 5.018740177154541 239.80194091796875 207 190 23
47.51334762573242 5.071778297424316 239.80194091796875 14 127 255
49.58679962158203 4.824565887451172 228.1133575439453 180 119 31
56.58281707763672 5.071778297424316 239.80194091796875 44 160 44
60.93191909790039 5.071778297424316 239.80194091796875 40 39 214
65.49317169189453 5.071778297424316 239.80194091796875 189 103 148
58.19362258911133 4.219472408294678 199.5035400390625 14 127 255
68.50992584228516 4.676703453063965 221.12216186523438 180 119 31
78.75263214111328 5.071778297424316 239.80194091796875 127 127 127
83.20780944824219 5.071778297424316 239.80194091796875 34 189 188
84.9132080078125 4.9067511558532715 231.99920654296875 207 190 23
84.06829071044922 4.628573894500732 218.8465118408203 180 119 31
78.49151611328125 4.124433517456055 195.0099334716797 14 127 255
100.9754867553711 5.071778297424316 239.80194091796875 44 160 44
90.46404266357422 4.351803779602051 205.76039123535156 40 39 214
107.50872039794922 4.957276344299316 234.38812255859375 189 103 148
114.34102630615234 5.071778297424316 239.80194091796875 75 86 140
118.79620361328125 5.071778297424316 239.80194091796875 194 119 227
123.1983413696289 5.071778297424316 239.80194091796875 127 127 127
127.4944076538086 5.071778297424316 239.80194091796875 34 189 188
131.52528381347656 5.071778297424316 239.80194091796875 207 190 23
47.566383361816406 5.124815940856934 239.80194091796875 14 127 255
49.391597747802734 4.855827808380127 227.2153778076172 180 119 31
56.58281707763672 5.124815940856934 239.80194091796875 44 160 44
60.93191909790039 5.124815940856934 239.80194091796875 40 39 214
65.49317169189453 5.124815940856934 239.80194091796875 189 103 148
58.19362258911133 4.26359748840332 199.5035400390625 14 127 255
68.50680541992188 4.725394248962402 221.11209106445312 180 119 31
78.75263214111328 5.124815940856934 239.80194091796875 127 127 127
83.20780944824219 5.124815940856934 239.80194091796875 34 189 188
84.9010238647461 4.9573516845703125 231.96591186523438 207 190 23
84.06829071044922 4.676976680755615 218.8465118408203 180 119 31
78.49467468261719 4.167732238769531 195.0177764892578 14 127 255
100.9754867553711 5.124815940856934 239.80194091796875 44 160 44
90.49092864990234 4.398619174957275 205.821533203125 40 39 214
107.51911926269531 5.00960111618042 234.41078186035156 189 103 148
114.34102630615234 5.124815940856934 239.80194091796875 75 86 140
118.79620361328125 5.124815940856934 239.80194091796875 194 119 227
123.1983413696289 5.124815940856934 239.80194091796875 127 127 127
127.4944076538086 5.124815940856934 239.80194091796875 34 189 188
131.52528381347656 5.124815940856934 239.80194091796875 207 190 23
47.566383361816406 5.177853584289551 239.80194091796875 14 127 255
49.391597747802734 4.9060821533203125 227.2153778076172 180 119 31
56.58281707763672 5.177853584289551 239.80194091796875 44 160 44
60.93191909790039 5.177853584289551 239.80194091796875 40 39 214
65.49317169189453 5.177853584289551 239.80194091796875 189 103 148
58.191226959228516 4.307544708251953 199.49533081054688 14 127 255
68.50680541992188 4.774298191070557 221.11209106445312 180 119 31
78.75263214111328 5.177853584289551 239.80194091796875 127 127 127
83.20780944824219 5.177853584289551 239.80194091796875 34 189 188
84.89696502685547 5.008416652679443 231.95481872558594 207 190 23
84.07208251953125 4.725593090057373 218.8563995361328 180 119 31
78.49467468261719 4.210865020751953 195.0177764892578 14 127 255
100.9754867553711 5.177853584289551 239.80194091796875 44 160 44
105.4306640625 5.177853584289551 239.80194091796875 40 39 214
107.46196746826172 5.058756351470947 234.28619384765625 189 103 148
114.34102630615234 5.177853584289551 239.80194091796875 75 86 140
118.79620361328125 5.177853584289551 239.80194091796875 194 119 227
123.14530944824219 5.177853584289551 239.80194091796875 127 127 127
127.4944076538086 5.177853584289551 239.80194091796875 34 189 188
131.52528381347656 5.177853584289551 239.80194091796875 207 190 23
47.51334762573242 5.230891704559326 239.80194091796875 14 127 255
49.60546875 4.977797508239746 228.19924926757812 180 119 31
56.58281707763672 5.230891704559326 239.80194091796875 44 160 44
60.93191909790039 5.230891704559326 239.80194091796875 40 39 214
65.44013214111328 5.230891704559326 239.80194091796875 189 103 148
58.191226959228516 4.351667881011963 199.49533081054688 14 127 255
68.50055694580078 4.822762489318848 221.0919189453125 180 119 31
78.75263214111328 5.230891704559326 239.80194091796875 127 127 127
83.20780944824219 5.230891704559326 239.80194091796875 34 189 188
84.88478088378906 5.058992862701416 231.92152404785156 207 190 23
84.03885650634766 4.774860382080078 218.8959197998047 180 119 31
78.46101379394531 4.254510879516602 195.04132080078125 14 127 255
100.9754867553711 5.230891704559326 239.80194091796875 44 160 44
105.4306640625 5.230891704559326 239.80194091796875 40 39 214
107.46196746826172 5.110574245452881 234.28619384765625 189 103 148
114.34102630615234 5.230891704559326 239.80194091796875 75 86 140
118.79620361328125 5.230891704559326 239.80194091796875 194 119 227
123.14530944824219 5.230891704559326 239.80194091796875 127 127 127
127.4944076538086 5.230891704559326 239.80194091796875 34 189 188
117.66304779052734 4.679576396942139 214.5277862548828 207 190 23
47.51334762573242 5.283929347991943 239.80194091796875 14 127 255
49.62181854248047 5.029926300048828 228.2744598388672 180 119 31
56.58281707763672 5.283929347991943 239.80194091796875 44 160 44
60.93191909790039 5.283929347991943 239.80194091796875 40 39 214
65.44013214111328 5.283929347991943 239.80194091796875 189 103 148
58.15188980102539 4.396152973175049 199.51174926757812 14 127 255
68.50680541992188 4.872106552124023 221.11209106445312 180 119 31
78.75263214111328 5.283929347991943 239.80194091796875 127 127 127
83.15476989746094 5.283929347991943 239.80194091796875 34 189 188
84.88478088378906 5.110288143157959 231.92152404785156 207 190 23
92.06512451171875 5.283929347991943 239.80194091796875 180 119 31
78.46101379394531 4.297648906707764 195.04132080078125 14 127 255
100.9754867553711 5.283929347991943 239.80194091796875 44 160 44
105.4306640625 5.283929347991943 239.80194091796875 40 39 214
107.47754669189453 5.163140773773193 234.32015991210938 189 103 148
114.34102630615234 5.283929347991943 239.80194091796875 75 86 140
118.79620361328125 5.283929347991943 239.80194091796875 194 119 227
123.14530944824219 5.283929347991943 239.80194091796875 127 127 127
127.44136810302734 5.283929347991943 239.80194091796875 34 189 188
131.4722442626953 5.283929347991943 239.80194091796875 207 190 23
47.51334762573242 5.336967468261719 239.80194091796875 14 127 255
49.62181854248047 5.080414772033691 228.2744598388672 180 119 31
56.52977752685547 5.336967468261719 239.80194091796875 44 160 44
60.93191909790039 5.336967468261719 239.80194091796875 40 39 214
65.44013214111328 5.336967468261719 239.80194091796875 189 103 148
58.14710235595703 4.439914226531982 199.49533081054688 14 127 255
68.50680541992188 4.921010971069336 221.11209106445312 180 119 31
78.75263214111328 5.336967468261719 239.80194091796875 127 127 127
83.15476989746094 5.336967468261719 239.80194091796875 34 189 188
84.88072204589844 5.1613359451293945 231.91043090820312 207 190 23
92.06512451171875 5.336967468261719 239.80194091796875 180 119 31
78.46101379394531 4.340786933898926 195.04132080078125 14 127 255
100.9754867553711 5.336967468261719 239.80194091796875 44 160 44
105.4306640625 5.336967468261719 239.80194091796875 40 39 214
107.49832916259766 5.2159743309021 234.36546325683594 189 103 148
114.34102630615234 5.336967468261719 239.80194091796875 75 86 140
118.79620361328125 5.336967468261719 239.80194091796875 194 119 227
123.14530944824219 5.336967468261719 239.80194091796875 127 127 127
127.44136810302734 5.336967468261719 239.80194091796875 34 189 188
131.4722442626953 5.336967468261719 239.80194091796875 207 190 23
47.51334762573242 5.390005111694336 239.80194091796875 14 127 255
49.57133102416992 5.1309027671813965 228.2744598388672 180 119 31
56.52977752685547 5.390005111694336 239.80194091796875 44 160 44
60.93191909790039 5.390005111694336 239.80194091796875 40 39 214
65.44013214111328 5.390005111694336 239.80194091796875 189 103 148
58.14231872558594 4.483668327331543 199.47891235351562 14 127 255
68.50992584228516 4.970141410827637 221.12216186523438 180 119 31
78.75263214111328 5.390005111694336 239.80194091796875 127 127 127
83.15476989746094 5.390005111694336 239.80194091796875 34 189 188
84.88072204589844 5.212628364562988 231.91043090820312 207 190 23
92.01209259033203 5.390005111694336 239.80194091796875 180 119 31
92.06512451171875 5.390005111694336 239.80194091796875 180 119 31
78.46101379394531 4.383924961090088 195.04132080078125 14 127 255
100.92244720458984 5.390005111694336 239.80194091796875 44 160 44
90.52166748046875 4.62780237197876 205.89144897460938 40 39 214
107.513916015625 5.268573760986328 234.3994598388672 189 103 148
114.34102630615234 5.390005111694336 239.80194091796875 75 86 140
118.7431640625 5.390005111694336 239.80194091796875 194 119 227
123.14530944824219 5.390005111694336 239.80194091796875 127 127 127
127.44136810302734 5.390005111694336 239.80194091796875 34 189 188
131.4722442626953 5.390005111694336 239.80194091796875 207 190 23
47.566383361816406 5.443042755126953 239.80194091796875 14 127 255
49.57133102416992 5.18139123916626 228.2744598388672 180 119 31
56.52977752685547 5.443042755126953 239.80194091796875 44 160 44
60.93191909790039 5.443042755126953 239.80194091796875 40 39 214
65.44013214111328 5.443042755126953 239.80194091796875 189 103 148
58.14231872558594 4.527787685394287 199.47891235351562 14 127 255
68.51305389404297 5.019277095794678 221.1322479248047 180 119 31
78.69959259033203 5.443042755126953 239.80194091796875 127 127 127
83.15476989746094 5.443042755126953 239.80194091796875 34 189 188
87.71602630615234 5.443042755126953 239.80194091796875 207 190 23
92.01209259033203 5.443042755126953 239.80194091796875 180 119 31
78.46101379394531 4.42706298828125 195.04132080078125 14 127 255
100.92244720458984 5.443042755126953 239.80194091796875 44 160 44
90.44485473632812 4.669374465942383 205.71673583984375 40 39 214
107.5243148803711 5.320931434631348 234.422119140625 189 103 148
114.34102630615234 5.443042755126953 239.80194091796875 75 86 140
118.7431640625 5.443042755126953 239.80194091796875 194 119 227
123.14530944824219 5.443042755126953 239.80194091796875 127 127 127
127.44136810302734 5.443042755126953 239.80194091796875 34 189 188
117.63641357421875 4.870230197906494 214.5657501220703 207 190 23
47.566383361816406 5.4960808753967285 239.80194091796875 14 127 255
49.592342376708984 5.234097480773926 228.37123107910156 180 119 31
56.52977752685547 5.4960808753967285 239.80194091796875 44 160 44
60.93191909790039 5.4960808753967285 239.80194091796875 40 39 214
65.44013214111328 5.4960808753967285 239.80194091796875 189 103 148
58.144710540771484 4.5720953941345215 199.48712158203125 14 127 255
68.51617431640625 5.068416595458984 221.142333984375 180 119 31
78.69959259033203 5.4960808753967285 239.80194091796875 127 127 127
83.10173034667969 5.4960808753967285 239.80194091796875 34 189 188
85.0776596069336 5.3307671546936035 232.5890655517578 207 190 23
91.95905303955078 5.4960808753967285 239.80194091796875 180 119 31
92.01209259033203 5.4960808753967285 239.80194091796875 180 119 31
78.46101379394531 4.470201015472412 195.04132080078125 14 127 255
100.92244720458984 5.4960808753967285 239.80194091796875 44 160 44
90.41799926757812 4.713473320007324 205.65565490722656 40 39 214
107.53471374511719 5.373298645019531 234.44479370117188 189 103 148
114.34102630615234 5.4960808753967285 239.80194091796875 75 86 140
118.7431640625 5.4960808753967285 239.80194091796875 194 119 227
123.14530944824219 5.4960808753967285 239.80194091796875 127 127 127
127.44136810302734 5.4960808753967285 239.80194091796875 34 189 188
117.63641357421875 4.917686462402344 214.5657501220703 207 190 23
47.566383361816406 5.549118518829346 239.80194091796875 14 127 255
52.07460021972656 5.549118518829346 239.80194091796875 180 119 31
56.52977752685547 5.549118518829346 239.80194091796875 44 160 44
60.93191909790039 5.549118518829346 239.80194091796875 40 39 214
65.44013214111328 5.549118518829346 239.80194091796875 189 103 148
58.149497985839844 4.616596221923828 199.5035400390625 14 127 255
68.52555084228516 5.118027687072754 221.172607421875 180 119 31
78.69959259033203 5.549118518829346 239.80194091796875 127 127 127
83.10173034667969 5.549118518829346 239.80194091796875 34 189 188
85.07357788085938 5.381951332092285 232.57791137695312 207 190 23
91.95905303955078 5.549118518829346 239.80194091796875 180 119 31
78.46101379394531 4.513338565826416 195.04132080078125 14 127 255
100.92244720458984 5.549118518829346 239.80194091796875 44 160 44
90.40265655517578 4.758151531219482 205.6207733154297 40 39 214
107.54511260986328 5.425676345825195 234.46746826171875 189 103 148
114.2879867553711 5.549118518829346 239.80194091796875 75 86 140
118.7431640625 5.549118518829346 239.80194091796875 194 119 227
123.14530944824219 5.549118518829346 239.80194091796875 127 127 127
127.44136810302734 5.549118518829346 239.80194091796875 34 189 188
117.65203857421875 4.96580171585083 214.59423828125 207 190 23
47.566383361816406 5.602156639099121 239.80194091796875 14 127 255
52.07460021972656 5.602156639099121 239.80194091796875 180 119 31
56.476741790771484 5.602156639099121 239.80194091796875 44 160 44
60.93191909790039 5.602156639099121 239.80194091796875 40 39 214
65.44013214111328 5.602156639099121 239.80194091796875 189 103 148
58.163856506347656 4.661872386932373 199.5528106689453 14 127 255
68.52243041992188 5.1667094230651855 221.1625213623047 180 119 31
78.69959259033203 5.602156639099121 239.80194091796875 127 127 127
83.10173034667969 5.602156639099121 239.80194091796875 34 189 188
84.89439392089844 5.421947479248047 232.0880584716797 207 190 23
91.95905303955078 5.602156639099121 239.80194091796875 180 119 31
78.46101379394531 4.556476593017578 195.04132080078125 14 127 255
100.92244720458984 5.602156639099121 239.80194091796875 44 160 44
105.37762451171875 5.602156639099121 239.80194091796875 40 39 214
107.5400619506836 5.47991943359375 234.56956481933594 189 103 148
114.2879867553711 5.602156639099121 239.80194091796875 75 86 140
118.69012451171875 5.602156639099121 239.80194091796875 194 119 227
123.14530944824219 5.602156639099121 239.80194091796875 127 127 127
127.44136810302734 5.602156639099121 239.80194091796875 34 189 188
131.41920471191406 5.602156639099121 239.80194091796875 207 190 23
47.566383361816406 5.655194282531738 239.80194091796875 14 127 255
52.07460021972656 5.655194282531738 239.80194091796875 180 119 31
56.476741790771484 5.655194282531738 239.80194091796875 44 160 44
60.93191909790039 5.655194282531738 239.80194091796875 40 39 214
65.44013214111328 5.655194282531738 239.80194091796875 189 103 148
58.168643951416016 4.706395626068115 199.56922912597656 14 127 255
68.2981185913086 5.198551177978516 220.4385223388672 180 119 31
78.69959259033203 5.655194282531738 239.80194091796875 127 127 127
83.10173034667969 5.655194282531738 239.80194091796875 34 189 188
87.6629867553711 5.655194282531738 239.80194091796875 207 190 23
91.90601348876953 5.655194282531738 239.80194091796875 180 119 31
78.45785522460938 4.599429607391357 195.03347778320312 14 127 255
100.92244720458984 5.655194282531738 239.80194091796875 44 160 44
105.37762451171875 5.655194282531738 239.80194091796875 40 39 214
107.5400619506836 5.531800270080566 234.56956481933594 189 103 148
114.2879867553711 5.655194282531738 239.80194091796875 75 86 140
118.69012451171875 5.655194282531738 239.80194091796875 194 119 227
123.09226989746094 5.655194282531738 239.80194091796875 127 127 127
127.44136810302734 5.655194282531738 239.80194091796875 34 189 188
131.41920471191406 5.655194282531738 239.80194091796875 207 190 23
47.566383361816406 5.7082319259643555 239.80194091796875 14 127 255
52.07460021972656 5.7082319259643555 239.80194091796875 180 119 31
56.476741790771484 5.7082319259643555 239.80194091796875 44 160 44
60.93191909790039 5.7082319259643555 239.80194091796875 40 39 214
65.44013214111328 5.7082319259643555 239.80194091796875 189 103 148
58.18540954589844 4.751904010772705 199.6267547607422 14 127 255
68.29501342773438 5.247067928314209 220.4285125732422 180 119 31
78.69959259033203 5.7082319259643555 239.80194091796875 127 127 127
83.10173034667969 5.7082319259643555 239.80194091796875 34 189 188
87.6629867553711 5.7082319259643555 239.80194091796875 207 190 23
91.90601348876953 5.7082319259643555 239.80194091796875 180 119 31
78.45469665527344 4.642379283905029 195.025634765625 14 127 255
100.92244720458984 5.7082319259643555 239.80194091796875 44 160 44
105.37762451171875 5.7082319259643555 239.80194091796875 40 39 214
107.55567169189453 5.58449125289917 234.60360717773438 189 103 148
114.2879867553711 5.7082319259643555 239.80194091796875 75 86 140
118.69012451171875 5.7082319259643555 239.80194091796875 194 119 227
123.09226989746094 5.7082319259643555 239.80194091796875 127 127 127
127.44136810302734 5.7082319259643555 239.80194091796875 34 189 188
131.41920471191406 5.7082319259643555 239.80194091796875 207 190 23
47.51334762573242 5.761270046234131 239.80194091796875 14 127 255
52.07460021972656 5.761270046234131 239.80194091796875 180 119 31
56.423702239990234 5.761270046234131 239.80194091796875 44 160 44
60.93191909790039 5.761270046234131 239.80194091796875 40 39 214
65.44013214111328 5.761270046234131 239.80194091796875 189 103 148
58.192596435546875 4.7966485023498535 199.6514129638672 14 127 255
68.28880310058594 5.295339107513428 220.40846252441406 180 119 31
78.69959259033203 5.761270046234131 239.80194091796875 127 127 127
83.10173034667969 5.761270046234131 239.80194091796875 34 189 188
87.6629867553711 5.761270046234131 239.80194091796875 207 190 23
91.90601348876953 5.761270046234131 239.80194091796875 180 119 31
78.42418670654297 4.686267852783203 195.0570068359375 14 127 255
100.92244720458984 5.761270046234131 239.80194091796875 44 160 44
105.37762451171875 5.761270046234131 239.80194091796875 40 39 214
109.93888854980469 5.761270046234131 239.80194091796875 189 103 148
114.2879867553711 5.761270046234131 239.80194091796875 75 86 140
118.69012451171875 5.761270046234131 239.80194091796875 194 119 227
123.09226989746094 5.761270046234131 239.80194091796875 127 127 127
127.44136810302734 5.761270046234131 239.80194091796875 34 189 188
117.677490234375 5.158848762512207 214.727294921875 207 190 23
47.51334762573242 5.814307689666748 239.80194091796875 14 127 255
52.02156448364258 5.814307689666748 239.80194091796875 180 119 31
56.423702239990234 5.814307689666748 239.80194091796875 44 160 44
60.878883361816406 5.814307689666748 239.80194091796875 40 39 214
65.44013214111328 5.814307689666748 239.80194091796875 189 103 148
69.84227752685547 5.814307689666748 239.80194091796875 14 127 255
68.45790100097656 5.361147880554199 221.11209106445312 180 119 31
78.69959259033203 5.814307689666748 239.80194091796875 127 127 127
83.10173034667969 5.814307689666748 239.80194091796875 34 189 188
87.6629867553711 5.814307689666748 239.80194091796875 207 190 23
91.90601348876953 5.814307689666748 239.80194091796875 180 119 31
78.42418670654297 4.729409217834473 195.0570068359375 14 127 255
100.92244720458984 5.814307689666748 239.80194091796875 44 160 44
105.37762451171875 5.814307689666748 239.80194091796875 40 39 214
109.93888854980469 5.814307689666748 239.80194091796875 189 103 148
114.2879867553711 5.814307689666748 239.80194091796875 75 86 140
118.69012451171875 5.814307689666748 239.80194091796875 194 119 227
123.09226989746094 5.814307689666748 239.80194091796875 127 127 127
127.38833618164062 5.814307689666748 239.80194091796875 34 189 188
117.677490234375 5.206340789794922 214.727294921875 207 190 23
47.51334762573242 5.867345809936523 239.80194091796875 14 127 255
52.02156448364258 5.867345809936523 239.80194091796875 180 119 31
56.423702239990234 5.867345809936523 239.80194091796875 44 160 44
60.878883361816406 5.867345809936523 239.80194091796875 40 39 214
65.44013214111328 5.867345809936523 239.80194091796875 189 103 148
69.84227752685547 5.867345809936523 239.80194091796875 14 127 255
68.45790100097656 5.410052299499512 221.11209106445312 180 119 31
78.69959259033203 5.867345809936523 239.80194091796875 127 127 127
83.04869842529297 5.867345809936523 239.80194091796875 34 189 188
87.6629867553711 5.867345809936523 239.80194091796875 207 190 23
91.90601348876953 5.867345809936523 239.80194091796875 180 119 31
78.42102813720703 4.772358417510986 195.04916381835938 14 127 255
100.92244720458984 5.867345809936523 239.80194091796875 44 160 44
105.37762451171875 5.867345809936523 239.80194091796875 40 39 214
109.88584899902344 5.867345809936523 239.80194091796875 189 103 148
114.2879867553711 5.867345809936523 239.80194091796875 75 86 140
118.69012451171875 5.867345809936523 239.80194091796875 194 119 227
123.09226989746094 5.867345809936523 239.80194091796875 127 127 127
127.38833618164062 5.867345809936523 239.80194091796875 34 189 188
117.68791961669922 5.254298210144043 214.74632263183594 207 190 23
47.46030807495117 5.920383453369141 239.80194091796875 14 127 255
52.02156448364258 5.920383453369141 239.80194091796875 180 119 31
56.423702239990234 5.920383453369141 239.80194091796875 44 160 44
60.878883361816406 5.920383453369141 239.80194091796875 40 39 214
65.44013214111328 5.920383453369141 239.80194091796875 189 103 148
69.84227752685547 5.920383453369141 239.80194091796875 14 127 255
68.46102142333984 5.459205150604248 221.12216186523438 180 119 31
78.64655303955078 5.920383453369141 239.80194091796875 127 127 127
83.04869842529297 5.920383453369141 239.80194091796875 34 189 188
87.6629867553711 5.920383453369141 239.80194091796875 207 190 23
89.18858337402344 5.748650074005127 232.84597778320312 180 119 31
78.42102813720703 4.815498352050781 195.04916381835938 14 127 255
100.92244720458984 5.920383453369141 239.80194091796875 44 160 44
105.37762451171875 5.920383453369141 239.80194091796875 40 39 214
109.88584899902344 5.920383453369141 239.80194091796875 189 103 148
114.23494720458984 5.920383453369141 239.80194091796875 75 86 140
