ply
    format ascii 1.0
    element vertex 36001
    property float x
    property float y
    property float z
    property uchar red
    property uchar green
    property uchar blue
    end_header
42.59013366699219 13.245766639709473 120.59098815917969 207 190 23
44.840171813964844 13.248612403869629 120.61688995361328 180 119 31
44.86681365966797 13.248601913452148 120.6167984008789 180 119 31
47.099796295166016 13.253884315490723 120.6648941040039 14 127 255
49.45696258544922 13.270523071289062 120.81636810302734 44 160 44
51.77057647705078 13.301987648010254 121.10282897949219 40 39 214
56.30520248413086 13.871451377868652 126.28729248046875 189 103 148
53.93821334838867 12.762819290161133 116.19417572021484 75 86 140
59.01060485839844 13.444195747375488 122.39751434326172 194 119 227
62.05921936035156 13.650310516357422 124.27399444580078 127 127 127
62.08498001098633 13.649930953979492 124.27054595947266 127 127 127
24.072690963745117 14.48793888092041 131.6348114013672 14 127 255
24.99201774597168 13.59438419342041 123.5161361694336 180 119 31
27.616558074951172 13.717485427856445 124.63460540771484 44 160 44
30.35751724243164 13.886874198913574 126.17364501953125 40 39 214
32.76850509643555 13.891558647155762 126.2162094116211 189 103 148
32.793880462646484 13.890481948852539 126.2064208984375 189 103 148
36.71097183227539 14.535135269165039 132.06362915039062 14 127 255
37.16330337524414 13.771879196166992 125.12882232666016 180 119 31
40.119407653808594 13.982284545898438 127.04052734375 127 127 127
32.536712646484375 10.70246410369873 97.24066925048828 34 189 188
42.595375061035156 13.27407169342041 120.60582733154297 207 190 23
44.840187072753906 13.275293350219727 120.61693572998047 180 119 31
47.099815368652344 13.280577659606934 120.6649398803711 14 127 255
49.43582534790039 13.298746109008789 120.83001708984375 44 160 44
51.77127456665039 13.328951835632324 121.10446166992188 40 39 214
56.30870056152344 13.900245666503906 126.29513549804688 189 103 148
53.941165924072266 12.78921890258789 116.2005386352539 75 86 140
59.024471282958984 13.474431991577148 122.42626953125 194 119 227
62.060951232910156 13.678178787231445 124.27747344970703 127 127 127
24.045305252075195 14.518095970153809 131.64427185058594 14 127 255
24.072795867919922 14.51711654663086 131.6353759765625 14 127 255
24.99382781982422 13.622690200805664 123.52507781982422 180 119 31
27.61688804626465 13.74521541595459 124.63609313964844 44 160 44
30.356122970581055 13.914141654968262 126.1678466796875 40 39 214
32.7731819152832 13.921460151672363 126.23420715332031 189 103 148
36.71414566040039 14.565604209899902 132.07504272460938 14 127 255
37.167720794677734 13.80119514465332 125.1436996459961 180 119 31
40.12142562866211 14.011086463928223 127.04690551757812 127 127 127
32.53805923461914 10.72441577911377 97.24469757080078 34 189 188
42.59834289550781 13.30167293548584 120.6142349243164 207 190 23
44.84019470214844 13.301973342895508 120.61695098876953 180 119 31
47.099788665771484 13.307257652282715 120.66487121582031 14 127 255
49.44340515136719 13.327513694763184 120.84854125976562 44 160 44
51.77018356323242 13.355456352233887 121.10191345214844 40 39 214
56.3098030090332 13.928452491760254 126.29761505126953 189 103 148
53.945987701416016 12.81606388092041 116.21092224121094 75 86 140
59.04384994506836 13.505942344665527 122.46646881103516 194 119 227
62.06216049194336 13.7059326171875 124.27989196777344 127 127 127
24.05187225341797 14.55118465423584 131.6802215576172 14 127 255
24.996742248535156 13.651601791381836 123.53948211669922 180 119 31
27.619043350219727 13.773856163024902 124.64582061767578 44 160 44
30.32500457763672 13.940568923950195 126.15447998046875 40 39 214
32.776100158691406 13.950623512268066 126.2454605102539 189 103 148
36.71482849121094 14.595086097717285 132.07749938964844 14 127 255
37.169254302978516 13.829444885253906 125.14886474609375 180 119 31
40.126007080078125 14.040789604187012 127.0614242553711 127 127 127
32.51958084106445 10.746925354003906 97.2537612915039 34 189 188
42.573150634765625 13.328814506530762 120.61843872070312 207 190 23
42.59912109375 13.328594207763672 120.61643981933594 207 190 23
44.841026306152344 13.328897476196289 120.61918640136719 180 119 31
47.099754333496094 13.333935737609863 120.66477966308594 14 127 255
49.45220947265625 13.356619834899902 120.87006378173828 44 160 44
51.744667053222656 13.382568359375 121.1048812866211 40 39 214
51.77029037475586 13.382267951965332 121.10216522216797 40 39 214
56.310935974121094 13.956665992736816 126.3001480102539 189 103 148
53.94934844970703 12.842567443847656 116.21817016601562 75 86 140
59.06029510498047 13.536798477172852 122.50057983398438 194 119 227
62.064842224121094 13.734012603759766 124.28526306152344 127 127 127
24.059520721435547 14.584945678710938 131.7220916748047 14 127 255
24.972665786743164 13.680704116821289 123.55554962158203 180 119 31
24.998458862304688 13.679863929748535 123.54796600341797 180 119 31
27.624086380004883 13.80394458770752 124.6685791015625 44 160 44
30.326318740844727 13.969076156616211 126.15994262695312 40 39 214
32.78046798706055 13.98040771484375 126.26228332519531 189 103 148
36.714866638183594 14.624314308166504 132.07763671875 14 127 255
37.16768264770508 13.856537818908691 125.14356994628906 180 119 31
40.10317611694336 14.070741653442383 127.078125 127 127 127
32.522789001464844 10.76949691772461 97.26334381103516 34 189 188
42.57558059692383 13.356254577636719 120.62532043457031 207 190 23
44.843711853027344 13.356374740600586 120.62641143798828 180 119 31
47.099761962890625 13.360625267028809 120.664794921875 14 127 255
49.46047592163086 13.385590553283691 120.89026641845703 44 160 44
51.74933624267578 13.410563468933105 121.11580657958984 40 39 214
56.28716278076172 13.985634803771973 126.30949401855469 189 103 148
56.312408447265625 13.984967231750488 126.30345916748047 189 103 148
53.95068359375 12.868589401245117 116.22103881835938 75 86 140
59.06707763671875 13.565449714660645 122.51464080810547 194 119 227
62.071014404296875 13.762869834899902 124.29762268066406 127 127 127
24.061172485351562 14.615082740783691 131.73114013671875 14 127 255
24.974838256835938 13.709223747253418 123.56629943847656 180 119 31
27.601274490356445 13.833904266357422 124.6900863647461 44 160 44
27.626689910888672 13.8328218460083 124.68032836914062 44 160 44
30.330474853515625 13.99889850616455 126.17723846435547 40 39 214
32.78483200073242 14.010198593139648 126.27909851074219 189 103 148
36.71485900878906 14.653523445129395 132.07762145996094 14 127 255
37.16466522216797 13.883089065551758 125.13340759277344 180 119 31
40.10624694824219 14.09992790222168 127.08786010742188 127 127 127
32.54536819458008 10.791363716125488 97.26654052734375 34 189 188
42.58041763305664 13.384453773498535 120.63902282714844 207 190 23
44.8490104675293 13.384635925292969 120.64067077636719 180 119 31
47.099830627441406 13.387332916259766 120.66497802734375 14 127 255
49.43272018432617 13.4120512008667 120.88777160644531 44 160 44
51.7524299621582 13.438155174255371 121.12305450439453 40 39 214
56.29778289794922 14.016215324401855 126.33332061767578 189 103 148
53.92536544799805 12.894388198852539 116.22187805175781 75 86 140
59.04127502441406 13.59284496307373 122.517333984375 194 119 227
59.06806564331055 13.592774391174316 122.5167007446289 194 119 227
62.053829193115234 13.792652130126953 124.31826782226562 127 127 127
24.061981201171875 14.644710540771484 131.73556518554688 14 127 255
24.97679328918457 13.737628936767578 123.57597351074219 180 119 31
27.604976654052734 13.86334228515625 124.70681762695312 44 160 44
30.334421157836914 14.028630256652832 126.19364929199219 40 39 214
32.78797912597656 14.039474487304688 126.29120635986328 189 103 148
36.714874267578125 14.68274211883545 132.0776824951172 14 127 255
37.13739776611328 13.910918235778809 125.1347885131836 180 119 31
40.10734558105469 14.128422737121582 127.0913314819336 127 127 127
32.546531677246094 10.813262939453125 97.27001953125 34 189 188
42.5857048034668 13.412801742553711 120.65400695800781 207 190 23
44.854408264160156 13.412932395935059 120.65518951416016 180 119 31
47.10002517700195 13.414076805114746 120.66548156738281 14 127 255
49.426292419433594 13.437041282653809 120.87205505371094 44 160 44
51.75033950805664 13.464399337768555 121.11814880371094 40 39 214
56.31334686279297 14.048038482666016 126.36824035644531 189 103 148
53.925445556640625 12.920111656188965 116.2220458984375 75 86 140
59.04153060913086 13.620001792907715 122.51786804199219 194 119 227
62.06708908081055 13.823101043701172 124.34483337402344 127 127 127
24.0344295501709 14.674814224243164 131.74424743652344 14 127 255
24.979799270629883 13.766616821289062 123.5908432006836 180 119 31
27.60862922668457 13.892762184143066 124.72332000732422 44 160 44
30.33841896057129 14.058393478393555 126.21028137207031 40 39 214
32.761234283447266 14.067917823791504 126.29579162597656 189 103 148
36.714927673339844 14.711974143981934 132.07786560058594 14 127 255
37.1408805847168 13.939902305603027 125.14652252197266 180 119 31
40.108097076416016 14.156798362731934 127.09371948242188 127 127 127
32.54756546020508 10.83512020111084 97.27310943603516 34 189 188
42.58864974975586 13.44041633605957 120.662353515625 207 190 23
44.857234954833984 13.440465927124023 120.66279602050781 180 119 31
47.07426834106445 13.441030502319336 120.6678695678711 14 127 255
47.100318908691406 13.440848350524902 120.66622924804688 14 127 255
49.428157806396484 13.46428394317627 120.87661743164062 44 160 44
51.75090408325195 13.491334915161133 121.11947631835938 40 39 214
56.32457733154297 14.078795433044434 126.39344787597656 189 103 148
53.92546081542969 12.945820808410645 116.22207641601562 75 86 140
59.041961669921875 13.647198677062988 122.51875305175781 194 119 227
62.07905578613281 13.85327434539795 124.36881256103516 127 127 127
24.037309646606445 14.70571517944336 131.76004028320312 14 127 255
24.95833396911621 13.797197341918945 123.61991882324219 180 119 31
27.607038497924805 13.91954517364502 124.71612548828125 44 160 44
30.31477165222168 14.08829116821289 126.2280502319336 40 39 214
30.340620040893555 14.087329864501953 126.21943664550781 40 39 214
32.76140594482422 14.095925331115723 126.29645538330078 189 103 148
36.715087890625 14.741250991821289 132.07843017578125 14 127 255
37.145423889160156 13.969289779663086 125.16182708740234 180 119 31
40.110206604003906 14.185652732849121 127.10039520263672 127 127 127
32.5283317565918 10.85739517211914 97.27992248535156 34 189 188
42.5900764465332 13.467555046081543 120.66639709472656 207 190 23
44.85871505737305 13.467597961425781 120.66677856445312 180 119 31
47.077423095703125 13.468621253967285 120.67594909667969 14 127 255
49.44001007080078 13.494254112243652 120.90560913085938 44 160 44
51.75663757324219 13.519621849060059 121.13289642333984 40 39 214
56.32829666137695 14.107682228088379 126.40179443359375 189 103 148
53.92548370361328 12.97153091430664 116.22212982177734 75 86 140
59.042320251464844 13.6743803024292 122.5195083618164 194 119 227
62.0897102355957 13.883163452148438 124.39015197753906 127 127 127
24.039201736450195 14.736016273498535 131.77040100097656 14 127 255
24.963058471679688 13.827155113220215 123.64331817626953 180 119 31
27.57666778564453 13.945719718933105 124.70352935791016 44 160 44
27.60544204711914 13.946322441101074 124.70891571044922 44 160 44
30.317562103271484 14.117508888244629 126.23966979980469 40 39 214
32.76151657104492 14.123906135559082 126.29688262939453 189 103 148
36.71550369262695 14.770630836486816 132.07994079589844 14 127 255
37.15077590942383 13.998988151550293 125.17986297607422 180 119 31
40.11478042602539 14.215385437011719 127.1148910522461 127 127 127
32.531734466552734 10.880048751831055 97.29010009765625 34 189 188
42.59246826171875 13.495000839233398 120.67317199707031 207 190 23
44.83310317993164 13.494609832763672 120.66967010498047 180 119 31
47.08364486694336 13.497096061706543 120.69190216064453 14 127 255
49.41556167602539 13.521621704101562 120.91121673583984 44 160 44
51.73466491699219 13.547674179077148 121.14418029785156 40 39 214
56.32884216308594 14.135775566101074 126.40301513671875 189 103 148
53.92564392089844 12.997275352478027 116.22247314453125 75 86 140
59.0423583984375 13.70148754119873 122.51958465576172 194 119 227
62.07024383544922 13.912477493286133 124.4062728881836 127 127 127
62.093536376953125 13.911531448364258 124.39781188964844 127 127 127
24.037254333496094 14.763964653015137 131.75973510742188 14 127 255
24.96534538269043 13.8557710647583 123.6546401977539 180 119 31
27.5771427154541 13.973541259765625 124.70567321777344 44 160 44
30.31855583190918 14.145892143249512 126.24380493164062 40 39 214
32.7615852355957 14.151867866516113 126.29713439941406 189 103 148
36.68719482421875 14.80020809173584 132.08319091796875 14 127 255
37.15493392944336 14.028244972229004 125.19387817382812 180 119 31
40.120079040527344 14.245381355285645 127.1316909790039 127 127 127
32.534297943115234 10.902426719665527 97.29777526855469 34 189 188
42.57063674926758 13.523233413696289 120.68693542480469 207 190 23
42.59461212158203 13.522371292114258 120.67923736572266 207 190 23
44.837196350097656 13.522533416748047 120.6806869506836 180 119 31
47.09151077270508 13.52604866027832 120.7120590209961 14 127 255
49.42051696777344 13.549722671508789 120.92333984375 44 160 44
51.73660659790039 13.57497787475586 121.14872741699219 40 39 214
56.301761627197266 14.163952827453613 126.40498352050781 189 103 148
56.32908630371094 14.163793563842773 126.403564453125 189 103 148
53.90061569213867 13.023144721984863 116.22393798828125 75 86 140
53.925880432128906 13.023037910461426 116.22299194335938 75 86 140
59.042388916015625 13.728591918945312 122.51964569091797 194 119 227
62.07826232910156 13.941794395446777 124.42234802246094 127 127 127
24.034109115600586 14.791171073913574 131.74249267578125 14 127 255
24.938539505004883 13.8834228515625 123.65734100341797 180 119 31
24.96548080444336 13.883195877075195 123.65531158447266 180 119 31
27.58001136779785 14.002579689025879 124.7186508178711 44 160 44
30.318758010864258 14.173909187316895 126.2446517944336 40 39 214
32.761863708496094 14.179924011230469 126.29822540283203 189 103 148
36.68882369995117 14.830079078674316 132.08905029296875 14 127 255
37.12910079956055 14.056638717651367 125.20014190673828 180 119 31
37.15610885620117 14.056379318237305 125.19783020019531 180 119 31
40.09485626220703 14.274529457092285 127.14086151123047 127 127 127
40.12185287475586 14.274129867553711 127.13729858398438 127 127 127
32.53545379638672 10.924333572387695 97.30122375488281 34 189 188
42.575927734375 13.551610946655273 120.70194244384766 207 190 23
44.843101501464844 13.551008224487305 120.69657897949219 180 119 31
47.09615707397461 13.554083824157715 120.72396850585938 14 127 255
49.420684814453125 13.576513290405273 120.92375183105469 44 160 44
51.738712310791016 13.602326393127441 121.1536636352539 40 39 214
56.3053092956543 14.192804336547852 126.41294860839844 189 103 148
53.9026985168457 13.049354553222656 116.22843170166016 75 86 140
59.01673126220703 13.756025314331055 122.52262878417969 194 119 227
59.042816162109375 13.755788803100586 122.52052307128906 194 119 227
62.08641815185547 13.971148490905762 124.43869018554688 127 127 127
24.004945755004883 14.820293426513672 131.7423553466797 14 127 255
24.94063377380371 13.911940574645996 123.66771697998047 180 119 31
27.582521438598633 14.031440734863281 124.72999572753906 44 160 44
30.318828582763672 14.201865196228027 126.24494934082031 40 39 214
32.73508071899414 14.208356857299805 126.30265808105469 189 103 148
36.691322326660156 14.860306739807129 132.09805297851562 14 127 255
37.12963104248047 14.084529876708984 125.2019271850586 180 119 31
40.095794677734375 14.302985191345215 127.14383697509766 127 127 127
32.536476135253906 10.946198463439941 97.30428314208984 34 189 188
42.57880401611328 13.579224586486816 120.71009826660156 207 190 23
44.84724426269531 13.578957557678223 120.70773315429688 180 119 31
47.10103225708008 13.58219051361084 120.73646545410156 14 127 255
47.131935119628906 13.58340072631836 120.74723052978516 14 127 255
49.41556930541992 13.601850509643555 120.9112319946289 44 160 44
51.74489212036133 13.630749702453613 121.16812896728516 40 39 214
56.31245040893555 14.222567558288574 126.42898559570312 189 103 148
53.90713119506836 13.076136589050293 116.23798370361328 75 86 140
59.021305084228516 13.784192085266113 122.5321273803711 194 119 227
62.0984001159668 14.001373291015625 124.46271514892578 127 127 127
24.0076961517334 14.851131439208984 131.7574462890625 14 127 255
24.944717407226562 13.941575050354004 123.68797302246094 180 119 31
27.584653854370117 14.060114860534668 124.73963928222656 44 160 44
30.318918228149414 14.229827880859375 126.24531555175781 40 39 214
32.73810577392578 14.237606048583984 126.31432342529297 189 103 148
36.694297790527344 14.890729904174805 132.1087646484375 14 127 255
37.129852294921875 14.112305641174316 125.20266723632812 180 119 31
40.09709167480469 14.33156967163086 127.14795684814453 127 127 127
32.53875732421875 10.968488693237305 97.31110382080078 34 189 188
42.57975769042969 13.606225967407227 120.71279907226562 207 190 23
44.84904479980469 13.606202125549316 120.71257781982422 180 119 31
47.13566970825195 13.611185073852539 120.75679016113281 14 127 255
49.41373825073242 13.62808895111084 120.90675354003906 44 160 44
51.75587844848633 13.660449028015137 121.19385528564453 40 39 214
56.3195915222168 14.252338409423828 126.44502258300781 189 103 148
53.91286849975586 13.103240013122559 116.25035858154297 75 86 140
59.028602600097656 13.81300163269043 122.54727935791016 194 119 227
62.08226013183594 14.031474113464355 124.48554229736328 127 127 127
62.10456466674805 14.030292510986328 124.47505950927734 127 127 127
24.011035919189453 14.882343292236328 131.77578735351562 14 127 255
24.951751708984375 13.972870826721191 123.72284698486328 180 119 31
27.588523864746094 14.089680671691895 124.75714111328125 44 160 44
30.31917953491211 14.25787353515625 126.24640655517578 40 39 214
32.742557525634766 14.267484664916992 126.33151245117188 189 103 148
36.69710159301758 14.921090126037598 132.11886596679688 14 127 255
37.13072967529297 14.140331268310547 125.20562744140625 180 119 31
40.100215911865234 14.360811233520508 127.15786743164062 127 127 127
32.542198181152344 10.991172790527344 97.32139587402344 34 189 188
42.581302642822266 13.63341999053955 120.71717834472656 207 190 23
44.84919738769531 13.632946968078613 120.7129898071289 180 119 31
47.1335563659668 13.637282371520996 120.75138092041016 14 127 255
49.3881721496582 13.65515422821045 120.90962982177734 44 160 44
51.76826477050781 13.690529823303223 121.22285461425781 40 39 214
56.323219299316406 14.281224250793457 126.45316314697266 189 103 148
53.917388916015625 13.130051612854004 116.2601089477539 75 86 140
59.03493118286133 13.84158992767334 122.56041717529297 194 119 227
62.09123611450195 14.061039924621582 124.5035400390625 127 127 127
24.013261795043945 14.912871360778809 131.78799438476562 14 127 255
24.958213806152344 14.003860473632812 123.75489044189453 180 119 31
27.56587028503418 14.119803428649902 124.77950286865234 44 160 44
30.292404174804688 14.286335945129395 126.25118255615234 40 39 214
30.319568634033203 14.285979270935059 126.24803161621094 40 39 214
32.745887756347656 14.296878814697266 126.34435272216797 189 103 148
36.69923782348633 14.951181411743164 132.1265411376953 14 127 255
37.133609771728516 14.169121742248535 125.21533966064453 180 119 31
40.10370635986328 14.390186309814453 127.16893005371094 127 127 127
32.52321243286133 11.013558387756348 97.32899475097656 34 189 188
42.58489227294922 13.661271095275879 120.72735595703125 207 190 23
44.849342346191406 13.659689903259277 120.71337890625 180 119 31
47.130680084228516 13.663155555725098 120.74401092529297 14 127 255
49.3920783996582 13.682978630065918 120.919189453125 44 160 44
51.77548599243164 13.719254493713379 121.2397689819336 40 39 214
56.32424545288086 14.309452056884766 126.45545959472656 189 103 148
53.9195556640625 13.156293869018555 116.26477813720703 75 86 140
59.038970947265625 13.869646072387695 122.56880950927734 194 119 227
62.09939193725586 14.09042739868164 124.5198974609375 127 127 127
24.015029907226562 14.943119049072266 131.79769897460938 14 127 255
24.932992935180664 14.032442092895508 123.76556396484375 180 119 31
24.959810256958008 14.032129287719727 123.76280212402344 180 119 31
27.568885803222656 14.14894962310791 124.79315185546875 44 160 44
30.295461654663086 14.315705299377441 126.26393127441406 40 39 214
32.71928405761719 14.325410842895508 126.34953308105469 189 103 148
32.74675369262695 14.325201034545898 126.34768676757812 189 103 148
36.700565338134766 14.980945587158203 132.13131713867188 14 127 255
37.13848876953125 14.198681831359863 125.2317886352539 180 119 31
40.10493850708008 14.418756484985352 127.17283630371094 127 127 127
32.52421188354492 11.035423278808594 97.33198547363281 34 189 188
42.56088638305664 13.68883991241455 120.7350082397461 207 190 23
44.85006332397461 13.686607360839844 120.71531677246094 180 119 31
47.1063117980957 13.690539360046387 120.75 14 127 255
47.13120651245117 13.690013885498047 120.745361328125 14 127 255
49.39854431152344 13.711517333984375 120.93502044677734 44 160 44
51.750789642333984 13.746631622314453 121.2447280883789 40 39 214
56.29658889770508 14.33750057220459 126.45616149902344 189 103 148
56.324398040771484 14.3374605178833 126.455810546875 189 103 148
53.89445877075195 13.182159423828125 116.26610565185547 75 86 140
59.04340744018555 13.897799491882324 122.57801818847656 194 119 227
62.10427474975586 14.119077682495117 124.5296859741211 127 127 127
23.988555908203125 14.9739408493042 131.81240844726562 14 127 255
24.016212463378906 14.973007202148438 131.80419921875 14 127 255
24.932125091552734 14.059326171875 123.7612533569336 180 119 31
27.57143211364746 14.17785930633545 124.80467987060547 44 160 44
30.299802780151367 14.345686912536621 126.28202819824219 40 39 214
32.71976852416992 14.353567123413086 126.35139465332031 189 103 148
36.67201232910156 15.010444641113281 132.1337432861328 14 127 255
36.70093536376953 15.010320663452148 132.13265991210938 14 127 255
37.11500930786133 14.227996826171875 125.24602508544922 180 119 31
40.1046257019043 14.446769714355469 127.17183685302734 127 127 127
32.52447509765625 11.057040214538574 97.33277130126953 34 189 188
42.566097259521484 13.717222213745117 120.74978637695312 207 190 23
44.85262680053711 13.714090347290039 120.72221374511719 180 119 31
47.11133575439453 13.718708992004395 120.76287841796875 14 127 255
49.4048957824707 13.740031242370605 120.95056915283203 44 160 44
51.75111770629883 13.77353572845459 121.24549865722656 40 39 214
56.297584533691406 14.36572265625 126.4583969116211 189 103 148
53.89459991455078 13.207908630371094 116.26641082763672 75 86 140
59.023170471191406 13.926531791687012 122.59229278564453 194 119 227
62.08018493652344 14.147407531738281 124.53661346435547 127 127 127
23.99187660217285 15.005169868469238 131.83065795898438 14 127 255
24.931730270385742 14.08647632598877 123.7593002319336 180 119 31
27.57452964782715 14.207058906555176 124.81869506835938 44 160 44
30.303741455078125 14.37548542022705 126.2984390258789 40 39 214
32.720821380615234 14.381976127624512 126.35546875 189 103 148
36.67228317260742 15.039778709411621 132.1347198486328 14 127 255
37.11788558959961 14.256803512573242 125.2557373046875 180 119 31
40.104705810546875 14.474926948547363 127.17210388183594 127 127 127
32.52448654174805 11.078571319580078 97.33280944824219 34 189 188
42.56962585449219 13.745067596435547 120.7597885131836 207 190 23
44.85498046875 13.741512298583984 120.72855377197266 180 119 31
47.11732482910156 13.747166633605957 120.77822875976562 14 127 255
49.41080093383789 13.768428802490234 120.96503448486328 44 160 44
51.75102996826172 13.800329208374023 121.24530029296875 40 39 214
56.30109405517578 14.3945894241333 126.4662857055664 189 103 148
53.89468002319336 13.233643531799316 116.26658630371094 75 86 140
59.032432556152344 13.955835342407227 122.61152648925781 194 119 227
62.086700439453125 14.17643928527832 124.54969024658203 127 127 127
23.994247436523438 15.035813331604004 131.84368896484375 14 127 255
24.93375015258789 14.114991188049316 123.76932525634766 180 119 31
27.577255249023438 14.236072540283203 124.83103942871094 44 160 44
30.307735443115234 14.405317306518555 126.3150863647461 40 39 214
32.723567962646484 14.4111328125 126.36607360839844 189 103 148
36.67237091064453 15.069040298461914 132.13502502441406 14 127 255
37.1213493347168 14.28583812713623 125.26741790771484 180 119 31
40.106201171875 14.503594398498535 127.17684173583984 127 127 127
32.52444839477539 11.100086212158203 97.33269500732422 34 189 188
42.57008361816406 13.77192497253418 120.76109313964844 207 190 23
44.86089324951172 13.770029067993164 120.74446868896484 180 119 31
47.12370300292969 13.775744438171387 120.79458618164062 14 127 255
49.41764450073242 13.79709243774414 120.98178100585938 44 160 44
51.7512092590332 13.827193260192871 121.24571990966797 40 39 214
56.31193161010742 14.425336837768555 126.49063110351562 189 103 148
53.8947868347168 13.259385108947754 116.26681518554688 75 86 140
59.03478240966797 13.983510971069336 122.61640930175781 194 119 227
62.101497650146484 14.207371711730957 124.5793685913086 127 127 127
23.995925903320312 15.06602668762207 131.8529052734375 14 127 255
24.937870025634766 14.144702911376953 123.7897720336914 180 119 31
27.57876205444336 14.264460563659668 124.83785247802734 44 160 44
30.312047958374023 14.435308456420898 126.33306121826172 40 39 214
32.727054595947266 14.440619468688965 126.37953186035156 189 103 148
36.672401428222656 15.098278045654297 132.13514709472656 14 127 255
37.126121520996094 14.315384864807129 125.28352355957031 180 119 31
40.109710693359375 14.532994270324707 127.18797302246094 127 127 127
32.50288772583008 11.121602058410645 97.33258819580078 34 189 188
32.5244255065918 11.12160587310791 97.33262634277344 34 189 188
42.57030487060547 13.7987060546875 120.76172637939453 207 190 23
44.83842468261719 13.7980375289917 120.75587463378906 180 119 31
47.12775421142578 13.8036470413208 120.80496215820312 14 127 255
49.42301940917969 13.82535457611084 120.99494171142578 44 160 44
51.75318145751953 13.854536056518555 121.25032806396484 40 39 214
56.31511688232422 14.454131126403809 126.49778747558594 189 103 148
53.89501190185547 13.28515625 116.26730346679688 75 86 140
59.03544998168945 14.010788917541504 122.6177978515625 194 119 227
62.11906051635742 14.238950729370117 124.6146011352539 127 127 127
23.998369216918945 15.09672737121582 131.8663330078125 14 127 255
24.942115783691406 14.174495697021484 123.81085205078125 180 119 31
27.551605224609375 14.292306900024414 124.83991241455078 44 160 44
30.286962509155273 14.464613914489746 126.344970703125 40 39 214
32.698509216308594 14.468308448791504 126.37723541259766 189 103 148
36.672420501708984 15.127510070800781 132.1352081298828 14 127 255
37.130340576171875 14.34472370147705 125.29776000976562 180 119 31
40.11552810668945 14.563237190246582 127.2064208984375 127 127 127
32.50291442871094 11.143138885498047 97.33267974853516 34 189 188
42.54478073120117 13.825799942016602 120.76508331298828 207 190 23
44.84040832519531 13.825358390808105 120.76122283935547 180 119 31
47.12917709350586 13.83078384399414 120.80860900878906 14 127 255
49.42552185058594 13.852816581726074 121.00106048583984 44 160 44
51.75846481323242 13.882771492004395 121.2627182006836 40 39 214
56.31870651245117 14.4830322265625 126.50585174560547 189 103 148
53.89596176147461 13.311105728149414 116.26934814453125 75 86 140
59.035804748535156 14.037993431091309 122.61853790283203 194 119 227
62.10057830810547 14.268598556518555 124.63282775878906 127 127 127
24.001708984375 15.127997398376465 131.88467407226562 14 127 255
24.91651153564453 14.202893257141113 123.81969451904297 180 119 31
24.943273544311523 14.202537536621094 123.81659698486328 180 119 31
27.551137924194336 14.319676399230957 124.83779907226562 44 160 44
30.287948608398438 14.493029594421387 126.34908294677734 40 39 214
32.695037841796875 14.494720458984375 126.36381530761719 189 103 148
36.672447204589844 15.156745910644531 132.1352996826172 14 127 255
37.134403228759766 14.374009132385254 125.31147003173828 180 119 31
40.09308624267578 14.593443870544434 127.22447967529297 127 127 127
40.11852264404297 14.592460632324219 127.2159194946289 127 127 127
32.50294876098633 11.164678573608398 97.33277893066406 34 189 188
42.54844665527344 13.853703498840332 120.7754898071289 207 190 23
44.843570709228516 13.853044509887695 120.76973724365234 180 119 31
47.13054275512695 13.857904434204102 120.8121109008789 14 127 255
49.400535583496094 13.880078315734863 121.00541687011719 44 160 44
51.73833084106445 13.911389350891113 121.27838897705078 40 39 214
56.319862365722656 14.511310577392578 126.5084457397461 189 103 148
53.87283706665039 13.33746337890625 116.27494812011719 75 86 140
59.009857177734375 14.06539249420166 122.6209716796875 194 119 227
59.03620147705078 14.065207481384277 122.6193618774414 194 119 227
62.10313034057617 14.296751976013184 124.63794708251953 127 127 127
23.97502326965332 15.158737182617188 131.89834594726562 14 127 255
24.917388916015625 14.230780601501465 123.82405853271484 180 119 31
27.548675537109375 14.346004486083984 124.8266372680664 44 160 44
30.288150787353516 14.521072387695312 126.34992980957031 40 39 214
32.693092346191406 14.521803855895996 126.3563003540039 189 103 148
36.64328384399414 15.185996055603027 132.13552856445312 14 127 255
37.140655517578125 14.404149055480957 125.33256530761719 180 119 31
40.09528732299805 14.622385025024414 127.2314682006836 127 127 127
32.50300598144531 11.186224937438965 97.33294677734375 34 189 188
42.55398941040039 13.882224082946777 120.79122161865234 207 190 23
44.8505973815918 13.881930351257324 120.78866577148438 180 119 31
47.108673095703125 13.886054992675781 120.82455444335938 14 127 255
49.404415130615234 13.907933235168457 121.01492309570312 44 160 44
51.74254608154297 13.939348220825195 121.28826141357422 40 39 214
56.29305648803711 14.539593696594238 126.5110855102539 189 103 148
53.87773132324219 13.364394187927246 116.28550720214844 75 86 140
59.013587951660156 14.093402862548828 122.62872314453125 194 119 227
62.10659408569336 14.325117111206055 124.6448974609375 127 127 127
23.97612762451172 15.18860912322998 131.9044189453125 14 127 255
24.921043395996094 14.260257720947266 123.84221649169922 180 119 31
27.546213150024414 14.37232780456543 124.81548309326172 44 160 44
30.288270950317383 14.54907512664795 126.35042572021484 40 39 214
32.694175720214844 14.5502347946167 126.3604965209961 189 103 148
36.643470764160156 15.215298652648926 132.13619995117188 14 127 255
37.1184196472168 14.434002876281738 125.35108947753906 180 119 31
40.0953254699707 14.65053939819336 127.2315902709961 127 127 127
32.503116607666016 11.207791328430176 97.33328247070312 34 189 188
42.55815887451172 13.910303115844727 120.80306243896484 207 190 23
44.85671615600586 13.910542488098145 120.80514526367188 180 119 31
47.11917495727539 13.915879249572754 120.85148620605469 14 127 255
49.41095733642578 13.936544418334961 121.03095245361328 44 160 44
51.74405288696289 13.966581344604492 121.29180145263672 40 39 214
56.29673767089844 14.568527221679688 126.51935577392578 189 103 148
53.883514404296875 13.391550064086914 116.29798889160156 75 86 140
59.020484924316406 14.122176170349121 122.64305114746094 194 119 227
62.11431121826172 14.35446834564209 124.66038513183594 127 127 127
23.9770565032959 15.218372344970703 131.90953063964844 14 127 255
24.92432975769043 14.289531707763672 123.8585433959961 180 119 31
27.547922134399414 14.400827407836914 124.82322692871094 44 160 44
30.288583755493164 14.577170372009277 126.35173034667969 40 39 214
32.698265075683594 14.580004692077637 126.37629699707031 189 103 148
36.64434051513672 15.244885444641113 132.13934326171875 14 127 255
37.12044143676758 14.462514877319336 125.35791778564453 180 119 31
40.09462356567383 14.678422927856445 127.22936248779297 127 127 127
32.50481033325195 11.229903221130371 97.33834838867188 34 189 188
42.533203125 13.937599182128906 120.80806732177734 207 190 23
44.85853576660156 13.937827110290527 120.8100357055664 180 119 31
47.12128448486328 13.943233489990234 120.85689544677734 14 127 255
49.4174690246582 13.965152740478516 121.0468978881836 44 160 44
51.74558639526367 13.99382209777832 121.29539489746094 40 39 214
56.303810119628906 14.598342895507812 126.53524780273438 189 103 148
53.88740158081055 13.418240547180176 116.30638122558594 75 86 140
59.02738571166992 14.150955200195312 122.65739440917969 194 119 227
62.094810485839844 14.383909225463867 124.67658233642578 127 127 127
23.980648040771484 15.249832153320312 131.92929077148438 14 127 255
24.92650032043457 14.3181734085083 123.86933135986328 180 119 31
27.525968551635742 14.43139934539795 124.84886932373047 44 160 44
30.261796951293945 14.605676651000977 126.35657501220703 40 39 214
30.288990020751953 14.60531234741211 126.35343170166016 40 39 214
32.675048828125 14.61007308959961 126.39460754394531 189 103 148
36.645729064941406 15.274690628051758 132.14434814453125 14 127 255
37.12138748168945 14.490609169006348 125.36111450195312 180 119 31
40.096832275390625 14.707371711730957 127.23636627197266 127 127 127
32.48635482788086 11.252495765686035 97.3475570678711 34 189 188
32.506187438964844 11.251908302307129 97.34246826171875 34 189 188
42.53386306762695 13.9645357131958 120.8099365234375 207 190 23
44.834808349609375 13.965478897094727 120.81809997558594 180 119 31
44.858970642089844 13.964682579040527 120.81121826171875 180 119 31
47.094783782958984 13.97003173828125 120.85749053955078 14 127 255
47.12147903442383 13.97002124786377 120.8573989868164 14 127 255
49.39678192138672 13.99364948272705 121.06181335449219 44 160 44
49.42043685913086 13.992766380310059 121.05416870117188 44 160 44
51.72225570678711 14.021597862243652 121.30359649658203 40 39 214
51.7469367980957 14.021015167236328 121.2985610961914 40 39 214
56.3106689453125 14.628110885620117 126.55066680908203 189 103 148
53.889076232910156 13.444381713867188 116.30998992919922 75 86 140
59.03097915649414 14.178947448730469 122.66486358642578 194 119 227
62.10161209106445 14.413063049316406 124.69024658203125 127 127 127
23.954687118530273 15.2810640335083 131.947021484375 14 127 255
23.982336044311523 15.280085563659668 131.93856811523438 14 127 255
24.900936126708984 14.346625328063965 123.87844848632812 180 119 31
27.53220558166504 14.462288856506348 124.87715911865234 44 160 44
30.2647647857666 14.63505744934082 126.36896514892578 40 39 214
32.67911911010742 14.639851570129395 126.41035461425781 189 103 148
36.61869430541992 15.30483341217041 132.1522674560547 14 127 255
36.64670181274414 15.304323196411133 132.14785766601562 14 127 255
37.12397384643555 14.519349098205566 125.36985778808594 180 119 31
40.100181579589844 14.736743927001953 127.24699401855469 127 127 127
32.48954772949219 11.275135040283203 97.35712432861328 34 189 188
42.53667449951172 13.992179870605469 120.81792449951172 207 190 23
44.84046173095703 13.993965148925781 120.83333587646484 180 119 31
47.09480285644531 13.9967679977417 120.8575439453125 14 127 255
49.406795501708984 14.023266792297363 121.08634948730469 44 160 44
51.728633880615234 14.050158500671387 121.31855773925781 40 39 214
56.31418991088867 14.657017707824707 126.55858612060547 189 103 148
53.88959503173828 13.470236778259277 116.31111145019531 75 86 140
59.0049934387207 14.206353187561035 122.66724395751953 194 119 227
59.03172302246094 14.206256866455078 122.6664047241211 194 119 227
62.1219482421875 14.4453706741333 124.73107147216797 127 127 127
23.95663833618164 15.311493873596191 131.957763671875 14 127 255
24.90381622314453 14.375686645507812 123.89277648925781 180 119 31
27.53502082824707 14.491389274597168 124.88992309570312 44 160 44
30.26885223388672 14.664987564086914 126.38603210449219 40 39 214
32.683597564697266 14.669819831848145 126.42768096923828 189 103 148
36.62152862548828 15.335248947143555 132.16249084472656 14 127 255
37.103424072265625 14.549891471862793 125.39411163330078 180 119 31
40.07394027709961 14.765588760375977 127.25303649902344 127 127 127
40.10148620605469 14.76536750793457 127.25112915039062 127 127 127
32.49128723144531 11.297273635864258 97.36234283447266 34 189 188
42.541587829589844 14.02052116394043 120.83187866210938 207 190 23
44.845943450927734 14.022403717041016 120.84810638427734 180 119 31
47.09481430053711 14.0235013961792 120.8575668334961 14 127 255
49.41048049926758 14.051095962524414 121.09538269042969 44 160 44
51.734554290771484 14.07860279083252 121.33244323730469 40 39 214
56.31529235839844 14.685296058654785 126.56105041503906 189 103 148
53.865196228027344 13.496294021606445 116.31397247314453 75 86 140
53.889984130859375 13.49605941772461 116.31195068359375 75 86 140
59.005821228027344 14.233683586120605 122.66896057128906 194 119 227
62.1385498046875 14.476825714111328 124.76441192626953 127 127 127
23.957345962524414 15.341132164001465 131.96165466308594 14 127 255
24.90706443786621 14.404967308044434 123.908935546875 180 119 31
27.53331184387207 14.518111228942871 124.8821792602539 44 160 44
30.271638870239258 14.694293975830078 126.39766693115234 40 39 214
32.6877326965332 14.699642181396484 126.44367218017578 189 103 148
36.624473571777344 15.365715980529785 132.17312622070312 14 127 255
37.10686111450195 14.578975677490234 125.40573120117188 180 119 31
40.074127197265625 14.793803215026855 127.25363159179688 127 127 127
32.4921875 11.319120407104492 97.36503601074219 34 189 188
42.54673385620117 14.048945426940918 120.84650421142578 207 190 23
44.84855270385742 14.049949645996094 120.85514068603516 180 119 31
47.067996978759766 14.05020523071289 120.85733795166016 14 127 255
49.41164016723633 14.07820987701416 121.09822845458984 44 160 44
51.737552642822266 14.106255531311035 121.33946990966797 40 39 214
56.287864685058594 14.713436126708984 126.56232452392578 189 103 148
53.870384216308594 13.523322105407715 116.32518005371094 75 86 140
59.008670806884766 14.261503219604492 122.67488861083984 194 119 227
62.12005615234375 14.506546020507812 124.7826919555664 127 127 127
23.957733154296875 15.370567321777344 131.9637908935547 14 127 255
24.908971786499023 14.433478355407715 123.91842651367188 180 119 31
27.501556396484375 14.54354476928711 124.8634033203125 44 160 44
27.5313720703125 14.544706344604492 124.87337493896484 44 160 44
30.27267837524414 14.72275447845459 126.40200805664062 40 39 214
32.689945220947266 14.728606224060059 126.45223999023438 189 103 148
36.62690353393555 15.395970344543457 132.181884765625 14 127 255
37.0808219909668 14.607380867004395 125.41146850585938 180 119 31
37.10787582397461 14.607111930847168 125.4091567993164 180 119 31
40.045654296875 14.821826934814453 127.25259399414062 127 127 127
40.0739631652832 14.821887969970703 127.25311279296875 127 127 127
32.49372100830078 11.341190338134766 97.36963653564453 34 189 188
42.54840850830078 14.076227188110352 120.85125732421875 207 190 23
44.8492317199707 14.076892852783203 120.85697174072266 180 119 31
47.068023681640625 14.076945304870605 120.85741424560547 14 127 255
49.41194152832031 14.105079650878906 121.09896850585938 44 160 44
51.739356994628906 14.133584976196289 121.34369659423828 40 39 214
56.28990936279297 14.741963386535645 126.56692504882812 189 103 148
53.878936767578125 13.551200866699219 116.34364318847656 75 86 140
59.01639175415039 14.290506362915039 122.6909408569336 194 119 227
62.12283706665039 14.534794807434082 124.78827667236328 127 127 127
23.929534912109375 15.400390625 131.96925354003906 14 127 255
24.8824405670166 14.461395263671875 123.92279052734375 180 119 31
24.909454345703125 14.461165428161621 123.92082214355469 180 119 31
27.499902725219727 14.570284843444824 124.85589599609375 44 160 44
30.273157119750977 14.750945091247559 126.40400695800781 40 39 214
32.69071578979492 14.75692081451416 126.45521545410156 189 103 148
36.59922790527344 15.425862312316895 132.18751525878906 14 127 255
37.08159637451172 14.635424613952637 125.41409301757812 180 119 31
40.045528411865234 14.84992504119873 127.25218963623047 127 127 127
32.47521209716797 11.363784790039062 97.37870788574219 34 189 188
42.55000305175781 14.103484153747559 120.85578155517578 207 190 23
44.849334716796875 14.103655815124512 120.85724639892578 180 119 31
47.04247283935547 14.104028701782227 120.8604507446289 14 127 255
49.385311126708984 14.13190746307373 121.0993423461914 44 160 44
51.71597671508789 14.161370277404785 121.35182189941406 40 39 214
51.740726470947266 14.160798072814941 121.34691619873047 40 39 214
56.299407958984375 14.772449493408203 126.5882797241211 189 103 148
53.885345458984375 13.578548431396484 116.35749053955078 75 86 140
59.00277328491211 14.3209228515625 122.71905517578125 194 119 227
59.0225715637207 14.319140434265137 122.70378875732422 194 119 227
62.12449645996094 14.562784194946289 124.79161834716797 127 127 127
23.931915283203125 15.431113243103027 131.9823760986328 14 127 255
24.883760452270508 14.489571571350098 123.92935943603516 180 119 31
27.5041446685791 14.600152015686035 124.87515258789062 44 160 44
30.24640464782715 14.77949047088623 126.40904235839844 40 39 214
32.66341018676758 14.785189628601074 126.45777893066406 189 103 148
32.69097137451172 14.785004615783691 126.45620727539062 189 103 148
36.600341796875 15.455568313598633 132.19154357910156 14 127 255
37.08150100708008 14.663125038146973 125.41376495361328 180 119 31
40.017250061035156 14.878020286560059 127.25176239013672 127 127 127
40.04545974731445 14.878044128417969 127.2519760131836 127 127 127
32.47844696044922 11.386456489562988 97.3884048461914 34 189 188
42.52397918701172 14.130450248718262 120.85779571533203 207 190 23
42.55036544799805 14.130335807800293 120.85681915283203 207 190 23
44.822750091552734 14.13043212890625 120.8576431274414 180 119 31
47.047359466552734 14.132227897644043 120.87300109863281 14 127 255
49.38579177856445 14.158828735351562 121.10051727294922 44 160 44
51.72230529785156 14.189947128295898 121.36666870117188 40 39 214
56.30648422241211 14.80230712890625 126.60418701171875 189 103 148
53.8876838684082 13.604872703552246 116.36253356933594 75 86 140
59.02312088012695 14.353012084960938 122.76136779785156 194 119 227
62.12906265258789 14.591456413269043 124.80078125 127 127 127
23.935226440429688 15.462443351745605 132.00062561035156 14 127 255
24.886552810668945 14.518610954284668 123.94327545166016 180 119 31
27.509855270385742 14.63080883026123 124.90108489990234 44 160 44
30.249380111694336 14.808905601501465 126.42147827148438 40 39 214
32.66543197631836 14.814074516296387 126.46560668945312 189 103 148
36.600589752197266 15.484911918640137 132.19244384765625 14 127 255
37.080806732177734 14.690587043762207 125.41140747070312 180 119 31
40.01688766479492 14.906030654907227 127.25061798095703 127 127 127
32.48014450073242 11.40859317779541 97.39350128173828 34 189 188
42.52484893798828 14.157469749450684 120.86026000976562 207 190 23
44.824180603027344 14.157614707946777 120.86150360107422 180 119 31
47.05515670776367 14.161308288574219 120.89302825927734 14 127 255
49.3880729675293 14.186267852783203 121.10610961914062 44 160 44
51.728458404541016 14.218481063842773 121.38111114501953 40 39 214
56.31096267700195 14.831488609313965 126.61426544189453 189 103 148
53.892059326171875 13.631715774536133 116.37197875976562 75 86 140
59.03078079223633 14.382030487060547 122.77730560302734 194 119 227
62.10958480834961 14.6209716796875 124.81710815429688 127 127 127
62.132850646972656 14.619950294494629 124.80839538574219 127 127 127
23.93759536743164 15.493172645568848 132.01370239257812 14 127 255
24.889873504638672 14.547964096069336 123.95980072021484 180 119 31
27.513914108276367 14.660594940185547 124.91950988769531 44 160 44
30.25510025024414 14.839673042297363 126.44538879394531 40 39 214
32.6695442199707 14.843915939331055 126.48153686523438 189 103 148
36.600669860839844 15.514183044433594 132.19273376464844 14 127 255
37.082183837890625 14.7188720703125 125.41606903076172 180 119 31
40.01618957519531 14.933914184570312 127.2483901977539 127 127 127
32.48053741455078 11.43027114868164 97.3946762084961 34 189 188
42.52528762817383 14.184347152709961 120.86150360107422 207 190 23
44.82942199707031 14.186004638671875 120.8756332397461 180 119 31
47.032569885253906 14.189298629760742 120.90370178222656 14 127 255
47.057823181152344 14.188851356506348 120.89988708496094 14 127 255
49.393497467041016 14.214615821838379 121.11941528320312 44 160 44
51.73133850097656 14.24612045288086 121.38786315917969 40 39 214
56.31551742553711 14.86069393157959 126.62450408935547 189 103 148
53.87202453613281 13.65890121459961 116.38430786132812 75 86 140
59.037776947021484 14.410893440246582 122.79185485839844 194 119 227
62.11720275878906 14.650374412536621 124.8324203491211 127 127 127
23.909442901611328 15.523048400878906 132.01947021484375 14 127 255
24.892045974731445 14.576653480529785 123.97063446044922 180 119 31
27.489084243774414 14.689720153808594 124.93223571777344 44 160 44
30.257051467895508 14.868597984313965 126.45353698730469 40 39 214
32.67420196533203 14.87401008605957 126.49956512451172 189 103 148
36.60068893432617 15.543427467346191 132.1927947998047 14 127 255
37.086647033691406 14.74838638305664 125.43116760253906 180 119 31
39.988502502441406 14.96222972869873 127.2498550415039 127 127 127
40.0162467956543 14.962080001831055 127.24858093261719 127 127 127
32.47983932495117 11.451567649841309 97.39258575439453 34 189 188
42.52424621582031 14.21073055267334 120.8585433959961 207 190 23
44.8367805480957 14.215071678161621 120.89546966552734 180 119 31
47.03374099731445 14.21639347076416 120.90670776367188 14 127 255
49.39984893798828 14.243234634399414 121.1349868774414 44 160 44
51.73200988769531 14.273153305053711 121.38944244384766 40 39 214
56.29470443725586 14.890602111816406 126.64068603515625 189 103 148
53.87650680541992 13.68578052520752 116.39398956298828 75 86 140
59.04439163208008 14.439669609069824 122.80561065673828 194 119 227
62.12186813354492 14.679086685180664 124.841796875 127 127 127
23.91046142578125 15.552909851074219 132.02508544921875 14 127 255
24.86643409729004 14.605133056640625 123.9796371459961 180 119 31
24.89288330078125 14.60456371307373 123.97480010986328 180 119 31
27.490808486938477 14.71827507019043 124.94007110595703 44 160 44
30.258237838745117 14.897150039672852 126.45849609375 40 39 214
32.67829895019531 14.90385627746582 126.51542663574219 189 103 148
36.6006965637207 15.57266902923584 132.1928253173828 14 127 255
37.06562423706055 14.778807640075684 125.45391082763672 180 119 31
37.089839935302734 14.777400016784668 125.44196319580078 180 119 31
39.99103546142578 14.99132251739502 127.2579116821289 127 127 127
32.47774887084961 11.472368240356445 97.38631439208984 34 189 188
42.524471282958984 14.237537384033203 120.85919189453125 207 190 23
44.84078598022461 14.243083000183105 120.9062728881836 180 119 31
47.037479400634766 14.244267463684082 120.91632843017578 14 127 255
49.4034538269043 14.27106761932373 121.14382934570312 44 160 44
51.73218536376953 14.300049781799316 121.38985443115234 40 39 214
56.30185317993164 14.920506477355957 126.65676879882812 189 103 148
53.878665924072266 13.712074279785156 116.3986587524414 75 86 140
59.021514892578125 14.467880249023438 122.81452941894531 194 119 227
62.12646484375 14.707786560058594 124.85103607177734 127 127 127
